# .PCD v0.7 - Point Cloud Data file format
VERSION 0.7
FIELDS x y z normal_x normal_y normal_z curvature
SIZE 4 4 4 4 4 4 4
TYPE F F F F F F F
COUNT 1 1 1 1 1 1 1
WIDTH 605
HEIGHT 1
VIEWPOINT 0 0 0 1 0 0 0
POINTS 605
DATA ascii
0.08012002 0.21778661 0.37122077 0.059068095 0.32009634 -0.9455418 0.0018513983
0.074210584 0.22117198 0.3719961 0.091317765 0.37947005 -0.92068642 0.00061390543
0.082831368 0.22450663 0.37415019 0.036910743 0.4598332 -0.88723791 0.0020787355
0.064537339 0.23162432 0.37636822 0.22835815 0.62668115 -0.74506605 0.00023045874
0.067200556 0.2277882 0.37426803 0.10900684 0.46610248 -0.87798971 0.00011324044
0.064210586 0.23622847 0.38039938 0.16751842 0.6617682 -0.7307533 0.00070729677
0.07462725 0.2269603 0.37489283 0.10071649 0.52466321 -0.84533113 0.0021248008
0.08421059 0.23085713 0.37815887 0.022817045 0.56878531 -0.82216942 0.00031282855
0.078377254 0.2340491 0.38044158 0.032044195 0.63395649 -0.7727046 0.00031503153
0.093377255 0.21449363 0.36993819 -0.077221036 0.26275492 -0.96176744 0.00079849723
0.087415747 0.21932581 0.37178332 -0.040985886 0.33631182 -0.94085836 0.0016121286
0.096710585 0.22111137 0.3718079 -0.13483264 0.39365605 -0.90931571 0.0020850848
0.089914866 0.2245374 0.37409496 -0.048387486 0.49317512 -0.86858332 0.001149165
0.10350417 0.21693298 0.36894917 -0.22734542 0.28902042 -0.92993617 0.0030258142
0.10968347 0.214347 0.36658773 -0.2677162 0.23182885 -0.93519169 0.0020842364
0.10587725 0.22116031 0.36998236 -0.22455344 0.35570675 -0.90722018 0.0014773897
0.1033707 0.22471514 0.37225661 -0.16196464 0.43881023 -0.88386261 0.0011987375
0.096710585 0.22697841 0.3748228 -0.13343272 0.54005533 -0.83098489 0.0021076507
0.094210587 0.23114021 0.37801304 -0.14042565 0.58049911 -0.80206078 0
0.11331857 0.22767103 0.37089035 -0.3057507 0.48584163 -0.81882501 0.00050860859
0.10305111 0.2293717 0.37513223 -0.19200192 0.57253331 -0.79708266 0.0018392509
0.11254392 0.2311603 0.37355548 -0.26296008 0.59337753 -0.76075959 0.00083536311
0.098741695 0.23456584 0.3799977 -0.12626715 0.61084205 -0.78161925 0.0010104136
0.11170263 0.23637152 0.37817678 -0.238278 0.62941569 -0.73963469 0.0002593119
0.10462725 0.23628901 0.38016114 -0.19554229 0.62682557 -0.75422341 0.0004152504
-0.017847868 0.26616031 0.2770229 -0.99155402 -0.0072172186 -0.12949353 0.0035124265
-0.017274359 0.2761603 0.28213802 0.99947196 -0.020956852 0.024831349 0.0043087578
-0.017474942 0.27282697 0.28338802 0.98986119 -0.087177753 0.11213746 0.0016314989
-0.018354256 0.26755598 0.28172135 -0.99583304 -0.0006256043 -0.091192476 0.005554318
-0.018654115 0.26616031 0.28672135 0.99968225 -0.013046344 0.021565337 0.0024318101
-0.018263165 0.26945555 0.29277533 0.99939418 0.030962052 -0.015896417 0.0015622075
-0.018297285 0.27762514 0.28828371 -0.98557687 -0.14276755 -0.090861224 0.0022466171
-0.019293815 0.28616029 0.28005469 -0.98459077 -0.12492449 -0.12237146 0.00045252565
-0.019493466 0.28949365 0.28130469 -0.9918946 0.025396951 -0.12449931 0.000451103
-0.020142356 0.28616029 0.28922135 -0.99536294 -0.07955955 -0.054062817 0.0015724723
-0.018295566 0.26616031 0.29663244 0.99823815 0.020706961 -0.05560353 0.00054677197
-0.018149909 0.27281266 0.29661846 -0.99739224 -0.066252626 -0.028623695 0.0015790476
-0.018996626 0.27797893 0.29588801 -0.99238646 -0.11184664 -0.051570628 0.0015935191
-0.020279642 0.29438946 0.29297134 0.99925387 -0.025538994 0.028973797 0.00041193148
-0.019950591 0.28282696 0.29755467 -0.99590391 -0.089424968 0.01336983 0.00076945417
-0.020234533 0.28866032 0.29797134 0.99938047 0.024695497 -0.02507434 0.00023637663
-0.018359585 0.29740539 0.27656204 -0.98630708 0.059264418 -0.15390252 0.00052145001
-0.018958464 0.30751446 0.28118333 -0.9812184 -0.02923885 -0.19067135 0.00066210027
-0.019692041 0.29449365 0.28588802 0.99392259 -0.045489773 0.1002429 0.00031459503
-0.019053601 0.32074365 0.28088802 -0.97537905 0.044726726 -0.21595225 8.5677602e-005
-0.018074848 0.31449363 0.27582657 -0.97686899 -0.016385265 -0.21320991 0.00031562112
-0.019788982 0.30949363 0.28672135 0.32828188 -0.87247211 0.36197162 6.131897e-005
-0.020012898 0.29866031 0.29880467 0.99860984 0.0086023612 -0.052003365 0
-0.019873666 0.3124103 0.29380468 0.9999336 0.0046617999 0.010545814 0.00036404523
-0.020142332 0.32157698 0.29088801 0.99996787 -0.0070738294 0.0037732006 0.00036429657
-0.019922266 0.3192853 0.299638 0.99903691 0.039782021 -0.018511254 7.259156e-005
-0.020156812 0.30782697 0.29755467 0.99991852 -0.0097546512 -0.0082367826 0.00026095696
-0.018150747 0.27100199 0.30547133 -0.98204678 -0.1884436 0.0085499054 0.00075393182
-0.019331511 0.27782696 0.30505466 -0.99251288 -0.12197716 -0.0063104182 0.00090076658
-0.017190874 0.26949364 0.31338802 0.97143048 0.17341498 -0.16201869 0.0027845183
-0.018699031 0.27447969 0.31181362 0.98012578 0.1649666 -0.11017968 0.0021417357
-0.019706277 0.28636864 0.30526301 0.9966014 0.0047542909 -0.082238063 0.00086016196
-0.019367311 0.27949363 0.31005469 0.99510276 0.057398807 -0.080472291 0.0024908704
-0.018630173 0.28738692 0.31289804 0.98714697 -0.033975203 -0.15616189 0.00014667846
-0.016634934 0.2711603 0.31838802 0.9626354 0.15992691 -0.21853261 0.00091889995
-0.018219933 0.27498606 0.31522074 0.96736377 0.13617256 -0.21369219 0.0017675472
-0.016173042 0.27460566 0.32169664 0.95134825 0.11734062 -0.28489935 0.0017832782
-0.014702959 0.28079572 0.32724214 nan nan nan nan
-0.018220099 0.27949363 0.31609213 0.9669596 0.027971134 -0.25339028 0.0015061096
-0.017604945 0.28944325 0.31835908 nan nan nan nan
-0.017140185 0.31173322 0.32374185 nan nan nan nan
-0.019231746 0.30147281 0.31026301 0.99313354 0.0054273768 -0.11686029 1.6551493e-006
-0.019879639 0.30782697 0.30505466 0.99701786 0.0079551078 -0.076759137 0.00029265275
-0.019538054 0.31366029 0.30797136 0.9947533 0.034104835 -0.096450523 0.00025813599
-0.019006543 0.30949363 0.31255469 0.99484169 0.021193674 -0.099200733 0.00024903187
-0.018579569 0.31613114 0.31851444 0.98015976 0.087141469 -0.17802575 7.4186246e-005
-0.019236162 0.31782696 0.31505468 0.99438745 0.044639636 -0.095921516 0.00021956458
-0.018191321 0.33116031 0.27901223 -0.9785313 -0.024880191 -0.20459132 0.00019650842
-0.019924397 0.32116032 0.28505468 -0.99447376 0.0077986666 -0.1046956 0.0013387286
-0.019679666 0.32782698 0.28588802 -0.98804194 0.0018887054 -0.15417372 0.0013630012
-0.018263524 0.33783248 0.27787283 -0.97013444 -0.010044746 -0.24235989 0.00051723194
-0.019059164 0.34279454 0.28256321 0.97684646 -0.1180641 0.17841487 0.00063391699
-0.019676952 0.33699363 0.28422135 -0.98399794 -0.0056982245 -0.17808837 0.00047798807
-0.020357333 0.33157697 0.29005468 -0.99467295 -0.012262811 -0.10234893 9.7423108e-005
-0.020757642 0.33032697 0.29588801 -0.99792206 -0.063424096 -0.011358351 0.00071656331
-0.020338921 0.32824364 0.30370051 0.99626559 0.073083505 -0.045973819 0.00035144089
-0.020312639 0.3411603 0.29005468 0.9897334 -0.10186473 0.10025646 0.0017328958
-0.020972097 0.33782697 0.29672134 0.99886388 -0.01440182 0.045426346 0.00041341083
-0.02047454 0.34282696 0.29672134 0.9733265 -0.22789015 0.026487745 0.001349476
-0.017595319 0.34786427 0.28002816 0.94397569 -0.28077132 0.17342837 0.0013394458
-0.014936733 0.3537457 0.27715138 0.90113276 -0.3931345 0.18277062 0.00054665125
-0.01856648 0.34750181 0.28588802 0.9566806 -0.27270129 0.10196166 0.0010024387
-0.015985722 0.3546676 0.28639826 0.91266674 -0.39538375 0.103495 0.00067117141
-0.010989442 0.36147958 0.27755469 0.84176546 -0.50584137 0.18856168 0.00068977149
-0.01189731 0.36181265 0.28453171 0.83701509 -0.53870469 0.095932387 0.00041493357
-0.0079904804 0.36576641 0.27740279 0.78840798 -0.59478652 0.15697719 0.00042656605
-0.0033286663 0.37119853 0.27658087 0.74118119 -0.64882582 0.17226563 0.00032324859
-0.0070525003 0.3683483 0.28422135 0.77610111 -0.62284404 0.098652653 0.00029738047
-0.018966617 0.34797898 0.29301858 0.95496255 -0.28866121 0.068710275 0.00081640994
-0.01765612 0.35212946 0.29672134 0.93579847 -0.3523497 0.011445394 0.00083917211
-0.014673024 0.35829085 0.29213801 0.88086224 -0.47109842 0.04634719 0.00052075367
-0.019592157 0.34616029 0.303388 0.95620841 -0.29080436 -0.033141129 0.00042838848
-0.015214079 0.35746169 0.30005467 0.88139969 -0.47164834 -0.026123689 0.00048138099
-0.011772267 0.36305922 0.29422134 0.82692546 -0.56207335 0.016368577 0.00058442401
-0.0083287135 0.36756766 0.29255468 0.774391 -0.63204724 0.028893702 0.00028377431
-0.0084678195 0.36734805 0.30005467 0.7804274 -0.62391067 -0.040849928 0.00035353651
-0.019832164 0.32199365 0.30922136 0.99811769 0.039440621 -0.04696209 0.00019150152
-0.019658582 0.32782698 0.31338802 0.98853433 0.099504545 -0.11357234 0.0013554796
-0.021033833 0.3361603 0.305888 0.99913937 0.035229132 -0.021897193 0.00079117157
-0.020565979 0.3411603 0.30734634 0.98840451 -0.14397344 -0.048250519 0.0005665666
-0.020310584 0.33282697 0.31338802 0.98859602 0.082849808 -0.12575306 0.0012692916
-0.020670997 0.3361603 0.31338802 0.99211824 -0.008610893 -0.12500899 0.0024823295
-0.019833049 0.34282696 0.31338802 0.97002625 -0.20469339 -0.13095684 0.0014115957
-0.018572716 0.32779714 0.31995681 0.9717592 0.11844391 -0.20409584 0.00045330479
-0.017108694 0.32949364 0.32672134 0.95556557 0.10944765 -0.27370703 0.00045142864
-0.019384993 0.33449364 0.32005468 0.97617912 0.060369145 -0.20839839 0.0012060694
-0.019977752 0.33949363 0.31672135 0.98141253 -0.12925032 -0.14185807 0.003485014
-0.018607948 0.34115276 0.32159847 0.95852911 -0.17264561 -0.22674963 0.0013935131
-0.017720168 0.33480296 0.32666075 0.96469718 -0.00086964457 -0.26336029 0.0021726366
-0.015954794 0.34311733 0.32932973 0.92747688 -0.18570626 -0.32449931 0.0018332617
-0.017279234 0.3520318 0.3079572 0.92225146 -0.37824005 -0.079917178 0.00064635248
-0.015178017 0.35658839 0.30749857 0.86841208 -0.48437306 -0.10603369 0.00060191011
-0.018060125 0.34766904 0.31497458 0.93262964 -0.32054213 -0.16569415 0.00068422582
-0.012610949 0.36118785 0.30494222 0.82363456 -0.56260955 -0.071390122 0.00021142657
-0.011794814 0.36095452 0.31212363 0.81769091 -0.55377012 -0.15722637 0.00033447519
-0.008507329 0.36643118 0.30740348 0.78366113 -0.61173242 -0.10797542 0.00043293528
-0.0037504367 0.37157592 0.31000641 nan nan nan nan
-0.015110211 0.35428014 0.31588802 0.87706375 -0.45181438 -0.16316548 0.00047571759
-0.011840377 0.35668209 0.32386243 0.84077632 -0.47926852 -0.25178707 0.00084446016
-0.016198119 0.34786296 0.32349062 0.90591341 -0.35187751 -0.23559086 0.0012022818
-0.014269833 0.35273781 0.32303783 0.87299246 -0.41826928 -0.25086823 0.00027484784
-0.0070252893 0.36530894 0.31917816 0.8143931 -0.53779238 -0.21804409 4.6412384e-005
-0.0068391934 0.36202663 0.32799074 0.76768923 -0.57988375 -0.27274188 0.00030946234
0.00078420324 0.37436554 0.31895959 0.69692248 -0.67217535 -0.24995884 0
0.00072921137 0.37107182 0.32770002 0.50709462 -0.80702162 -0.3026073 0
-0.0084932642 0.27108461 0.34038168 0.88125312 0.25812635 -0.39593396 0
-0.010759163 0.29019925 0.33882147 nan nan nan nan
-0.012867082 0.31266367 0.33715037 0.92841774 0.014742685 -0.37124544 0
-0.0081280479 0.29963601 0.34569231 nan nan nan nan
-0.0025075066 0.2668485 0.35000303 0.83132637 0.17409228 -0.52781475 0.00028026782
-0.0049197925 0.30023798 0.35138497 nan nan nan nan
-0.0015457787 0.28638554 0.35454711 nan nan nan nan
-0.015037019 0.31883293 0.33198234 nan nan nan nan
-0.010662734 0.3139728 0.34273121 nan nan nan nan
0.002664235 0.29906839 0.36200151 nan nan nan nan
-0.01547488 0.33449364 0.33330995 0.9629969 -0.031109426 -0.26771098 0.0028647459
-0.016185438 0.33949363 0.33079219 0.93289673 -0.15866765 -0.3233082 0.0022950922
-0.011686629 0.33407697 0.34270296 0.89917248 -0.085648865 -0.42913067 2.5065274e-006
-0.011794763 0.34133404 0.34100464 0.90237647 -0.1853139 -0.38907 0.0018149304
-0.0078135645 0.32782698 0.35031322 0.85215348 0.025687668 -0.52266103 0
-0.0082951812 0.34097713 0.34843439 0.87831545 -0.16721085 -0.44788674 0.0011858674
-0.0079615107 0.33449364 0.35040182 0.87584358 -0.043175466 -0.48065987 0.00052767387
-0.0055782865 0.34447816 0.3515383 0.81949568 -0.3016035 -0.48730084 0.00045493664
-0.014110014 0.34796971 0.33013073 0.90116179 -0.31399959 -0.29885057 0.00090260257
-0.01116437 0.35281086 0.33250335 0.85084623 -0.43064579 -0.3010065 0.00035743671
-0.011683565 0.34790128 0.3367562 0.88222146 -0.30607098 -0.35777923 0.00041947202
-0.0083833784 0.35750052 0.33255041 0.79072875 -0.53097403 -0.30465487 0.00053300365
-0.0059273792 0.35462657 0.34184778 0.78405941 -0.48068962 -0.3926681 0.0009736137
0.0021593198 0.36945745 0.33437952 0.68269962 -0.64437735 -0.34452736 0.00012071209
-0.0037197236 0.36115581 0.33701131 0.74678659 -0.56341648 -0.35337183 0.00029905105
0.00025590748 0.36250702 0.34237859 0.69176215 -0.59224427 -0.41317299 0.00020010486
-0.0085385032 0.34805688 0.34348869 0.83824098 -0.3412258 -0.42534357 0.00054696487
-0.0033832451 0.35124427 0.35005921 0.76864666 -0.44157892 -0.462807 0.00068531249
0.0015924486 0.35794085 0.35059193 0.71846551 -0.53107929 -0.44917941 0.0003398883
-0.002860788 0.32696417 0.35835496 0.83288723 0.040063456 -0.55199069 0.00053905096
0.003707807 0.32274377 0.36653924 0.75400656 0.053248525 -0.65470505 2.8260149e-005
0.0017632676 0.33116031 0.36498496 0.78741479 0.01636738 -0.61620611 0.00030908347
-0.0036424235 0.33449364 0.35754567 0.83076209 -0.0081585655 -0.55656779 0.00035558941
-0.0035288678 0.33932486 0.35706192 0.82965434 -0.18212859 -0.52773374 0.0012402857
0.00019130876 0.3437081 0.36055428 0.74951982 -0.29479641 -0.59271848 0.0010978723
0.0033535385 0.33767074 0.36644486 0.76091194 -0.11594602 -0.63841176 0.0010365364
-0.0017188293 0.3476049 0.35560513 0.75652367 -0.3629986 -0.54397058 0.001368552
0.004968144 0.35098323 0.36182168 0.69740617 -0.44864535 -0.55887568 0.00099305843
0.0033975935 0.35457656 0.35672647 0.69692856 -0.49180037 -0.52194154 0.00063299842
0.0087346248 0.29587901 0.36849716 nan nan nan nan
0.012463149 0.28224742 0.37036595 nan nan nan nan
0.023808409 0.27399236 0.37858018 nan nan nan nan
0.019274512 0.28822482 0.37707403 nan nan nan nan
0.016381895 0.30747595 0.37731344 nan nan nan nan
0.010813767 0.32381827 0.37427896 0.64652508 -0.020907372 -0.76260614 0
0.017457981 0.32165521 0.3799682 0.63324386 0.084415883 -0.76933491 0.00021916382
0.0067349984 0.36946568 0.34269792 0.66242051 -0.6317032 -0.40267876 0
0.0094860457 0.36689821 0.35043773 0.62183774 -0.63349175 -0.46044108 0.0001233447
0.0064288299 0.33116031 0.37035719 0.72872859 0.0061968588 -0.68477458 0.00078788982
0.016669948 0.33116031 0.38008958 0.64099908 0.0040901625 -0.7675308 0.00068733539
0.010571369 0.33449364 0.37451589 0.68650955 -0.09174633 -0.72130942 0.00085015874
0.0056927297 0.34282696 0.3676807 0.72087169 -0.25731432 -0.64353198 0.00068205106
0.010081825 0.3391979 0.37335181 0.69587982 -0.16314359 -0.69938219 0.0016361215
0.010693341 0.34282696 0.37276798 0.66025966 -0.27532417 -0.69875151 0.0021001578
0.015546789 0.33795211 0.37849864 0.63148296 -0.1616441 -0.75835371 0.00055866962
0.017433863 0.34433272 0.37805513 0.58405387 -0.33318651 -0.74018091 0.00095155835
0.0072579319 0.3480033 0.36658448 0.66825783 -0.38335201 -0.63755208 0.00027340523
0.0092757335 0.35856125 0.35992563 0.63233441 -0.54185247 -0.5536688 2.6391368e-005
0.014217296 0.35864362 0.36504781 0.58839482 -0.53393817 -0.60720795 0
0.011807755 0.36439377 0.35649005 0.65763038 -0.57299525 -0.48907954 8.0976577e-005
0.016794089 0.37248239 0.35228229 0.57563025 -0.64242858 -0.50590056 0.00040567474
0.020230072 0.36856598 0.36074442 0.55212331 -0.62494117 -0.55191338 0.00015312727
0.023201276 0.36533538 0.36673024 0.46398675 -0.65665102 -0.59458023 0
0.013274657 0.34650365 0.37348276 0.64152324 -0.34815171 -0.68354839 0.0013269818
0.013023493 0.35094252 0.37043145 0.61318892 -0.46549648 -0.6382103 0.001432665
0.017559685 0.35075125 0.37461913 0.56601363 -0.45177293 -0.68958664 0.0012572616
0.020319564 0.35669267 0.37230322 0.5417546 -0.53491831 -0.64835513 0.00033371523
0.023100425 0.3512738 0.37856787 0.52227867 -0.45729056 -0.71979874 0.00087853626
0.027230253 0.35764211 0.37673196 0.46995223 -0.55010301 -0.69031262 4.2529271e-005
0.028782221 0.36480534 0.37159011 0.46057555 -0.59549707 -0.65821981 0.00063614739
0.038281828 0.37101114 0.37202862 0.34571236 -0.6648581 -0.66215312 0
0.035227187 0.36208162 0.37811056 0.41947669 -0.58614469 -0.69316214 0
0.04397887 0.37031624 0.37569886 0.38451761 -0.59164178 -0.70859456 0
0.044989303 0.36463001 0.38100019 0.32365775 -0.60028917 -0.73136759 0
0.043562349 0.24979246 0.38388258 0.36889657 0.43743193 -0.82010281 0.00091745786
0.052338321 0.24218483 0.3820104 0.28011975 0.61197072 -0.73961115 0.00063277193
0.052553445 0.24749529 0.38597569 0.28837848 0.48062515 -0.82815301 0.0015846331
0.059326649 0.24873291 0.3886857 0.22915632 0.47467017 -0.84980917 0.0018456612
0.035935137 0.2541118 0.38196537 0.46210268 0.34333134 -0.81767023 0.0017587178
0.040868923 0.25485098 0.38479641 0.42111683 0.30926508 -0.85265219 0.0022757454
0.035120837 0.26145136 0.38355175 0.47903541 0.21666588 -0.85063565 5.7642203e-005
0.045608852 0.26200628 0.38840872 0.36128807 0.19121142 -0.91263855 0.00066690077
0.049130511 0.25269571 0.38757855 0.34023285 0.31463039 -0.88614291 0.0034817343
0.046695143 0.256111 0.38773829 0.37803307 0.26050895 -0.88838398 0.0017891582
0.059969783 0.25288892 0.39088935 0.18876663 0.327687 -0.92573667 0.00041889172
0.053377252 0.25616029 0.39019743 0.29266915 0.27457774 -0.91594309 0.0029110075
0.05087588 0.26567587 0.39099523 0.30824012 0.14083359 -0.94082618 0.00028687733
0.058079325 0.27030087 0.39376351 0.21155334 0.23493512 -0.94871002 0.00010097208
0.073587529 0.23776886 0.38344136 0.10349697 0.6671021 -0.73774195 0.00021456722
0.090390943 0.23594896 0.38220814 -0.061787687 0.63827723 -0.7673229 0.00021315618
0.060080625 0.24108735 0.38369435 0.21780281 0.59331077 -0.77494794 0.00090780272
0.066710584 0.24172725 0.38588786 0.15275747 0.58873641 -0.7937597 0.001406474
0.070877254 0.24581844 0.38937515 0.10944134 0.46547434 -0.87826884 0.0015702208
0.068377256 0.24996363 0.39119741 0.13416551 0.42797345 -0.89377767 0.002043775
0.08337725 0.23919214 0.38532126 0.0010572205 0.64555061 -0.7637167 0.00035402825
0.074210584 0.24323884 0.38809851 0.098611683 0.56541294 -0.81889182 0.0017351841
0.081710584 0.24450897 0.38938674 0.025146987 0.52910018 -0.84818667 0.00077038689
0.078663632 0.25104293 0.39266106 0.034748614 0.40097767 -0.91542858 0.0010237421
0.060918782 0.25792995 0.39251134 0.20369726 0.24330325 -0.94832003 0
0.06796059 0.25806081 0.3938143 0.1564768 0.30151731 -0.94053298 0
0.072960585 0.25449362 0.39352357 0.12429206 0.36478496 -0.92275858 0.0011177075
0.066475987 0.27045482 0.39565834 nan nan nan nan
0.083793923 0.25759822 0.39498946 -0.013905146 0.3109436 -0.95032656 0.00038637448
0.075818345 0.2643097 0.39586282 nan nan nan nan
0.089627251 0.24455887 0.3893781 -0.020437617 0.51812434 -0.85506111 0.0022393866
0.096918918 0.24478862 0.38884681 -0.1262437 0.52883434 -0.83928353 0.00097704621
0.089210585 0.24898888 0.3919397 -0.041010454 0.46840957 -0.88255906 0.0010064368
0.099661171 0.25108957 0.39173514 -0.14293751 0.37237459 -0.91700929 0.00061870238
0.10004392 0.24004178 0.38454914 -0.17042549 0.62474614 -0.76200235 0.00033366037
0.1091472 0.24308655 0.38484386 -0.22587729 0.60428804 -0.76407814 0.00069292437
0.10625222 0.24649005 0.38807037 -0.18728766 0.49908748 -0.84607035 0.0022130511
0.10919159 0.24952061 0.38902029 -0.3340196 0.44789615 -0.82934904 0.0032990822
0.10872079 0.25458094 0.39113396 -0.22270006 0.31360245 -0.92306995 0.0011526085
0.090043917 0.25282696 0.39338171 -0.049508061 0.3664445 -0.92912179 0.0018325896
0.093598254 0.25787079 0.39462587 -0.090695679 0.24838808 -0.96440536 0.0003336393
0.086710587 0.27148914 0.39739904 0.14054492 0.37990013 -0.91428828 5.5726676e-005
0.094216131 0.26541808 0.39600107 -0.034221046 0.18312028 -0.98249477 0.00023673571
0.10087726 0.25782698 0.39362726 -0.17509982 0.24591061 -0.95334566 0.00031938707
0.10516722 0.2687521 0.3947657 nan nan nan nan
0.10920631 0.26200503 0.39276856 -0.23256417 0.19008908 -0.95382392 0
0.028574359 0.28230715 0.38295355 nan nan nan nan
0.023870584 0.2947652 0.38135371 0.54539686 0.15608612 -0.82351649 0
0.02814229 0.29613379 0.38444605 0.49451098 0.29414052 -0.81788766 8.4694162e-005
0.033277929 0.27606094 0.38494292 0.41779244 0.02205216 -0.90827483 0
0.039425287 0.27374446 0.38773483 0.43525901 0.068949081 -0.89766121 0
0.044152439 0.27760395 0.39033553 nan nan nan nan
0.050475985 0.28499588 0.39370066 nan nan nan nan
0.034967311 0.29578361 0.38843113 0.50582379 0.0010903132 -0.86263603 0
0.056365088 0.28616029 0.39580625 0.37519205 -0.26738718 -0.88754439 0
0.052072264 0.30449581 0.39684406 nan nan nan nan
0.02131417 0.31125057 0.38203594 0.57508546 0.23168838 -0.78460014 0
0.027633123 0.31103152 0.38661027 0.58759177 0.013284848 -0.80904841 0
0.024310075 0.32095197 0.38507554 0.56784326 0.042705137 -0.82202822 0.00073998293
0.030008243 0.31782696 0.38846242 0.50134659 0.046378028 -0.86400276 0
0.041379176 0.30016485 0.39221379 nan nan nan nan
0.036621179 0.3111603 0.39184949 0.44259953 0.04672949 -0.89550096 0.00081673882
0.03665353 0.32110229 0.39224538 0.45606941 0.028854281 -0.88947636 0
0.04396043 0.31042558 0.39498058 nan nan nan nan
0.043225136 0.3213141 0.39540976 0.43215066 -0.19313221 -0.88087785 2.1719192e-005
0.04969658 0.32324365 0.39817542 0.34032038 0.083361454 -0.93660712 0.00049056392
0.055444475 0.32042581 0.39973977 0.25267726 -0.025848616 -0.96720529 0
0.073628001 0.28961152 0.39937237 nan nan nan nan
0.079439685 0.27508435 0.39774653 nan nan nan nan
0.065066859 0.29028833 0.39827088 0.14502276 0.2609199 -0.95440513 2.6168245e-005
0.060497489 0.30302688 0.39895639 nan nan nan nan
0.08337725 0.29324365 0.40051118 nan nan nan nan
0.09436807 0.28049943 0.39828354 nan nan nan nan
0.10007644 0.28134924 0.39760208 -0.098864898 -0.10259328 -0.98979813 0
0.091730401 0.29656678 0.40057603 nan nan nan nan
0.10745689 0.28464934 0.3965441 -0.28134868 0.35517436 -0.89145613 0.00035595745
0.070052043 0.3110528 0.40154225 nan nan nan nan
0.077912964 0.31420159 0.40267715 nan nan nan nan
0.08754392 0.30785304 0.40213379 nan nan nan nan
0.10651725 0.30017558 0.39880025 -0.25192317 0.076182738 -0.96474397 0
0.10004799 0.30260772 0.40031037 nan nan nan nan
0.09875612 0.32098913 0.4023889 -0.11127566 0.067333914 -0.99150586 0
0.10588481 0.31405213 0.40026313 nan nan nan nan
0.11231365 0.30720198 0.39762133 -0.29991606 0.08653418 -0.95003271 0
0.023694707 0.33116031 0.38555792 0.57292765 0.047003169 -0.81825709 0.0011918746
0.030234646 0.32467601 0.38901132 0.50789464 0.075394668 -0.85811341 0.00031950735
0.030392857 0.32949364 0.38986355 0.49015316 -0.0090582399 -0.87158924 0.0018737593
0.022239776 0.3361603 0.38410303 0.58244389 -0.15932666 -0.79710364 0.0021916553
0.022275174 0.34141123 0.38274983 0.58012491 -0.2383585 -0.77887106 0.00019179028
0.025398303 0.34449363 0.38376832 0.5277586 -0.3306689 -0.78238672 0.0015846
0.030431649 0.33359399 0.38984463 0.49785346 -0.058687761 -0.86527312 0.0026773459
0.031909801 0.34115422 0.388989 0.46988958 -0.26431516 -0.842224 0.0011149091
0.034723625 0.3379983 0.39138529 0.43994886 -0.16748255 -0.88226676 0.0019919011
0.040414106 0.34454319 0.39200637 0.39835143 -0.34186339 -0.85114366 0.00093065778
0.038883936 0.33116031 0.39429042 0.42514741 -0.076923408 -0.90184945 0.0002833358
0.04722954 0.33116031 0.39775041 0.34427774 -0.039472044 -0.93803769 0.0010278139
0.057105001 0.33111349 0.40066695 0.23156276 -0.10504823 -0.96713161 0
0.041527875 0.33782324 0.39456591 0.38052079 -0.18948518 -0.90515149 0.00071746903
0.04843777 0.33766699 0.39735872 0.32077181 -0.18486284 -0.92894089 0.00011273205
0.053061306 0.3361603 0.39916307 0.27633354 -0.15582384 -0.94834524 0.00096940284
0.049264442 0.34267533 0.39633065 0.31980282 -0.27286056 -0.90734404 0.00077665033
0.056771137 0.3410511 0.39906135 0.24457963 -0.30127457 -0.92163682 0.00056994759
0.030841671 0.34622791 0.38638088 0.46631625 -0.37378567 -0.80176896 0.00059365475
0.030136023 0.3511492 0.38329443 0.48133379 -0.46381217 -0.74377155 0.0007551263
0.033541139 0.35626343 0.38190073 0.42988008 -0.54535103 -0.71957994 0.00043885779
0.04003128 0.35119599 0.38843858 0.36861032 -0.46556336 -0.8045975 0.00033386744
0.040047996 0.35801798 0.38404927 0.35887361 -0.55626273 -0.74952078 0.00063540629
0.047983389 0.35434917 0.38996252 0.30047509 -0.50742185 -0.80761242 0.00048564503
0.056111246 0.35734537 0.39056116 0.23182528 -0.53566849 -0.81198293 0.00016821682
0.050823539 0.3635557 0.38427359 nan nan nan nan
0.054149341 0.37190241 0.37866151 nan nan nan nan
0.050513599 0.34755367 0.3947967 0.27466264 -0.41264299 -0.86849654 0.001405262
0.056923632 0.35018876 0.39532411 0.20659491 -0.45421004 -0.86660933 0.0010762555
0.063310087 0.32194778 0.40176672 0.15157229 -0.96710342 0.20429604 0
0.069210589 0.32324365 0.40279943 0.13886181 0.03511392 -0.98968905 0.00045679772
0.06712725 0.33116031 0.40275052 0.16451137 -0.024396656 -0.98607343 0.00015924127
0.080877252 0.32449365 0.40365875 -0.030762648 -0.032651003 -0.99899328 0.00011507783
0.074210584 0.33116031 0.40362886 0.073389284 0.0094079534 -0.99725902 7.2164315e-005
0.06239038 0.33650964 0.40135849 0.2004662 -0.17566822 -0.96382254 0.00060586125
0.072543919 0.3361603 0.40308782 0.1191192 -0.15152985 -0.9812488 0.00035606319
0.065439597 0.3411822 0.40085316 0.16081293 -0.27851874 -0.946872 0.00042865056
0.060003389 0.34499207 0.39858225 0.20027547 -0.33081591 -0.92219877 0.0013416804
0.081293918 0.33449364 0.40381786 0.015514863 -0.0857592 -0.99619508 0.00029431377
0.073317945 0.34101778 0.4020879 0.11694048 -0.30426264 -0.94538307 0.00015569822
0.080043919 0.33949363 0.40307927 0.027350297 -0.23844336 -0.97077125 0.0005408646
0.078793921 0.34476149 0.40127176 0.06368342 -0.40098909 -0.91386652 0.0018802406
0.090043917 0.32199365 0.40344229 -0.05523571 0.077016458 -0.9954986 0.00065913436
0.089210585 0.33032697 0.40384397 -0.05648496 -0.029365597 -0.99797148 0.00080149126
0.10004392 0.32949364 0.40283242 -0.16711122 0.01247186 -0.98585916 0.001248303
0.11175902 0.32426259 0.39990965 -0.28952926 0.069057085 -0.95467478 9.7059128e-005
0.10967918 0.33116031 0.40081596 -0.23881288 -0.011116978 -0.97100198 0.00058959104
0.08754392 0.3361603 0.40360159 -0.060514096 -0.17981385 -0.98183757 0.0010394453
0.096710585 0.33449364 0.4029403 -0.1226813 -0.14338349 -0.98203379 0.00063203048
0.08754392 0.33949363 0.40295628 -0.082747385 -0.19212243 -0.97787619 0.0018136769
0.086710587 0.34474364 0.40133271 -0.034247879 -0.34642872 -0.937451 0.0015663998
0.093334265 0.34445739 0.40083602 -0.1132112 -0.34289074 -0.93252832 0.00041344762
0.10066067 0.34050536 0.40094456 -0.15802416 -0.26459265 -0.95132494 0.00031528916
0.10387146 0.33465254 0.4017089 -0.1967489 -0.17149019 -0.96533978 0.00025280414
0.10827756 0.34187099 0.39907205 -0.21623127 -0.28514311 -0.9337759 0.0011879898
0.063830912 0.36832729 0.3844811 nan nan nan nan
0.063716471 0.36108258 0.39000797 0.16969441 -0.56485468 -0.80755377 0.00089029694
0.072127253 0.36322415 0.38984153 0.025864163 -0.23050778 -0.97272664 0
0.076725475 0.37186578 0.38347828 nan nan nan nan
0.080096424 0.35750067 0.39423177 0.021907482 -0.53102857 -0.84707063 0.00055911916
0.081319638 0.36453217 0.38966182 0.040035311 -0.55979401 -0.82766408 0
0.067496896 0.34758255 0.39883119 0.12203719 -0.41898319 -0.8997556 0.00045257993
0.065925039 0.35432184 0.39473978 0.14844076 -0.50793862 -0.84850675 0.00012452994
0.074210584 0.35209361 0.3971782 0.077841632 -0.49078625 -0.86779588 0
0.082543917 0.35015368 0.39875802 0.012643736 -0.48550799 -0.8741408 8.4292944e-005
0.08754392 0.3622613 0.39120588 -0.038033914 -0.56783283 -0.82226473 0.00069881394
0.087540388 0.35597426 0.39515051 -0.037457686 -0.52430975 -0.85070336 0.00029152504
0.096293919 0.3559702 0.39443645 -0.10127766 -0.52757567 -0.84344929 0.00071634242
0.096710585 0.36421305 0.38897029 -0.11664031 -0.56569582 -0.81632298 0
0.08883585 0.36998823 0.38527912 -0.13088885 -0.5900594 -0.79667938 0
0.09977638 0.36853474 0.38515428 -0.1524567 -0.62039578 -0.76932836 0
0.10250934 0.37359652 0.3802309 -0.15583943 -0.66821706 -0.72746134 0.00069993793
0.10993929 0.36740816 0.38358876 -0.36516196 -0.48088178 -0.79712576 0
0.10388967 0.35540873 0.3935118 -0.17358017 -0.51623929 -0.83866978 0.00021873393
0.10547408 0.36188564 0.38892436 -0.1896335 -0.56718051 -0.80146462 0.00028520598
0.090043917 0.3499878 0.39865962 -0.074990384 -0.47399724 -0.87732714 0.00055268605
0.10094745 0.3475959 0.39850521 -0.15576126 -0.40841308 -0.89940935 0.0014044119
0.11004392 0.34616029 0.39731175 -0.24210623 -0.35951394 -0.90118492 0.00029156666
0.10933933 0.34963289 0.39584604 -0.21094437 -0.45307592 -0.86615515 0.0010724709
0.0033634384 0.37943727 0.28297135 0.6896342 -0.71486354 0.1156495 4.7271274e-006
-0.002195752 0.37381649 0.28338802 0.73259962 -0.67428052 0.09297052 0.00028285495
-0.0028219188 0.37398103 0.29255468 0.73763943 -0.67434794 0.033808559 0.0003720565
0.0037704341 0.38077509 0.29172134 0.70137578 -0.71124905 0.046870325 0.00022664045
-0.0019936622 0.37482166 0.299638 0.73730081 -0.67431778 -0.041024674 0.00017420716
0.0039262106 0.38061896 0.30422133 0.70909321 -0.70201552 -0.066038668 0
0.0032635673 0.37907007 0.31005469 nan nan nan nan
0.010313421 0.38536185 0.28005916 0.66140455 -0.52420175 0.53642941 8.409474e-005
0.015711498 0.38930887 0.27740824 0.60238916 -0.77851474 0.1761876 0.00044213925
0.016245564 0.39152843 0.28839859 nan nan nan nan
0.022557396 0.39484638 0.28000879 0.5540967 -0.81593162 0.1650219 0.00026166634
0.024554692 0.39731935 0.28755468 0.53207618 -0.83971691 0.1084919 0.00029837922
0.0062841224 0.38327479 0.29797134 0.68168938 -0.73157489 -0.0098898467 6.1279388e-005
0.010346292 0.38682753 0.29005468 0.65830833 -0.75224286 0.027582828 0
0.012357818 0.38869247 0.29922134 0.64440858 -0.76432902 -0.02320959 0.00046881946
0.018609053 0.39368859 0.29880467 0.59099841 -0.80622464 -0.026880864 0.00046209976
0.024365524 0.39763334 0.29338801 0.56090891 -0.82724869 0.032261021 0
0.029716682 0.39925906 0.27922136 0.51166314 -0.84393656 0.16115786 0.00016986612
0.031419728 0.401288 0.28593689 0.53485084 -0.83470279 0.13117088 0.0015092908
0.029492931 0.40117899 0.298388 0.59951276 -0.79986519 0.02828826 0.0017700724
0.036673598 0.4038423 0.2830348 0.53924423 -0.81887901 0.19660342 0.0027741571
0.041468687 0.40630275 0.28017893 0.59668452 -0.73605442 0.31967399 0.0046658861
0.038035836 0.40650803 0.2890355 0.66373104 -0.71217334 0.22862691 0.0060518808
0.041896101 0.40932068 0.28642732 0.69832784 -0.64190453 0.31669655 0.0074801967
0.048646167 0.40913707 0.27535084 0.56912374 -0.67044389 0.4760285 0.0041112588
0.04540332 0.40928116 0.27996194 0.63794208 -0.63372177 0.43752337 0.007734261
0.048926689 0.41261405 0.27971172 0.62706453 -0.61177206 0.48220858 0.008518382
0.052952126 0.412083 0.27467835 0.54571664 -0.63669646 0.54480362 0.0086824857
0.055387102 0.41534337 0.27534348 -0.58646309 0.47035182 -0.65941656 0.0069317557
0.05197816 0.41539097 0.2786828 -0.62125874 0.44550997 -0.64463818 0.0070210868
0.053320948 0.4197306 0.27999836 -0.67102742 0.22823231 -0.70543051 0.019287055
0.044390719 0.41276109 0.28689981 0.7591421 -0.53182942 0.37531421 0.0081592649
0.048691347 0.41750407 0.28413391 -0.78770381 0.31975818 -0.52657133 0.013761523
0.052085627 0.42282695 0.28212979 -0.77206242 0.073603854 -0.63127017 0.014630762
0.055500932 0.42282695 0.27878666 -0.67032969 0.13908154 -0.72891319 0.014003118
0.049006503 0.42282695 0.28590241 -0.79209965 0.012506418 -0.61026371 0.0088509126
0.032055564 0.40258682 0.29338801 0.60793269 -0.78590459 0.11301243 0.0029430115
0.035408311 0.40573055 0.29630467 0.72546095 -0.67564672 0.13117869 0.0062298854
0.039204605 0.40941739 0.2941103 0.75431675 -0.58217055 0.30345285 0.0084621655
0.041601241 0.41296756 0.29355657 0.81708366 -0.49871966 0.28922832 0.0059770769
0.039808735 0.41282696 0.30005467 0.87890416 -0.45169213 0.15330255 0.0077655846
0.042538449 0.4179152 0.29647624 -0.92221206 0.21677276 -0.32020998 0.015646271
0.044126108 0.4159463 0.29097691 -0.83549118 0.35813901 -0.41676265 0.0063101761
0.045858745 0.41965851 0.29001695 -0.86405545 0.20007783 -0.46192759 0.0083563663
0.046232797 0.42282695 0.29019949 -0.84134001 -0.042877868 -0.5388028 0.014002997
0.043737058 0.42282695 0.29505467 -0.92800891 -0.043868113 -0.36996621 0.015927913
0.041491326 0.41949362 0.30246437 -0.97764313 0.088115945 -0.19091739 0.014024847
0.042089719 0.42282695 0.2999703 -0.93080443 -0.20856617 -0.30017206 0.02263369
0.011816008 0.38709092 0.30960342 0.62154108 -0.76790065 -0.15496892 0
0.016408091 0.39140224 0.30662966 0.61222577 -0.78427637 -0.10044972 0.00058612105
0.024586402 0.39709875 0.30806884 0.58818561 -0.80120897 -0.1100086 0.00072417402
0.01864597 0.39152053 0.31505468 0.6119284 -0.76970756 -0.18191731 0.00017416729
0.009326688 0.3827247 0.31896317 0.63932878 -0.7276693 -0.24850784 0.00036905234
0.0069196294 0.37886712 0.32407093 0.67269784 -0.69214267 -0.26156479 0.00016374547
0.016773202 0.38778299 0.32329464 0.61100048 -0.75425434 -0.24037232 0.00010274777
0.023506967 0.39421692 0.31847376 0.57491755 -0.78891391 -0.21699016 0.00052625564
0.025923708 0.39193878 0.33014894 nan nan nan nan
0.02967193 0.39793658 0.32088491 0.58626771 -0.76519066 -0.26603281 0.0012174994
0.029684588 0.40121576 0.303388 0.63943654 -0.76806325 -0.034637213 0.00053314096
0.030360596 0.40009755 0.31505468 0.63193953 -0.75345957 -0.1815244 0.0014593631
0.035130695 0.40606013 0.303388 0.76334554 -0.6456129 -0.022081323 0.0064817336
0.037781432 0.409776 0.30422133 0.8853122 -0.46453142 0.020804515 0.0026370792
0.032097634 0.40247869 0.31005469 0.63992208 -0.75813156 -0.12544398 0.0022433295
0.035286557 0.40584564 0.31005469 0.77328509 -0.62301695 -0.11781394 0.0043538189
0.038270939 0.41066483 0.31172135 0.92596191 -0.36500469 -0.096778885 0.0056537306
0.04055278 0.41616029 0.303388 0.95841587 -0.25210807 0.13371821 0.0076993569
0.038728204 0.41203812 0.30672133 0.91669613 -0.39595416 0.053744677 0.0056372932
0.040685859 0.42282695 0.30672133 -0.97780579 -0.15128914 -0.1449395 0.01520691
0.040189911 0.41616029 0.31005469 0.9770593 -0.2117469 -0.022765562 0.0077934829
0.040682923 0.41949362 0.31005469 -0.99925727 0.038370736 -0.0035427932 0.017403943
0.040245503 0.42282695 0.31338802 -0.95879072 -0.28065628 0.04418464 0.017295219
0.034744259 0.40281963 0.31900805 0.71401733 -0.66193897 -0.22807047 0.0042068134
0.03567823 0.40532601 0.31505468 0.79952115 -0.57145756 -0.18493846 0.007957723
0.038524553 0.40918341 0.31683689 0.87637985 -0.44033968 -0.19508827 0.0039579254
0.037762087 0.40619987 0.32008755 0.8339411 -0.48363721 -0.26577663 0.0034032301
0.033980943 0.39860493 0.32799071 0.61736292 -0.71186978 -0.33481994 0.0012486603
0.038153537 0.40317011 0.32663301 0.76542193 -0.52207255 -0.37625733 0.0080874227
0.041345336 0.4113234 0.32365668 0.89620382 -0.30908144 -0.31825671 0.0095198918
0.040588778 0.40639165 0.32683995 0.82694536 -0.40068227 -0.39448079 0.0032797202
0.039961983 0.41282696 0.31672135 0.91752237 -0.34445685 -0.19875151 0.0057691978
0.040834647 0.41616029 0.31672135 0.98144567 -0.1188565 -0.15045775 0.01030743
0.041193374 0.41949362 0.31742018 -0.98114866 -0.13262615 0.14056218 0.01425032
0.040527269 0.42282695 0.31838802 -0.93579018 -0.34231243 0.084373891 0.015171559
0.04237403 0.41579407 0.32328776 0.95345104 -0.011437553 -0.30133098 0.0062794178
0.042296872 0.42025363 0.32338801 -0.94606793 -0.15670598 0.28354666 0.018351162
0.041423302 0.42294857 0.32328892 -0.89207959 -0.3977648 0.21442311 0.016648956
0.060091939 0.41934958 0.27407819 -0.55641669 0.33156627 -0.76188213 0.0059849271
0.059723917 0.42282695 0.27556932 -0.55957764 0.14584222 -0.81584489 0.011366715
0.10636498 0.42282695 0.27464783 0.51163942 0.12574565 -0.84994888 0.011495458
0.054946836 0.42923605 0.27831757 -0.61659455 -0.26994571 -0.73955423 0.019208526
0.046546955 0.43568656 0.2798956 -0.65691733 -0.38597551 -0.64767468 0.0076512755
0.053395595 0.4362002 0.27403957 -0.53959918 -0.38631058 -0.74806207 0.0060230121
0.056819666 0.4325178 0.27476799 -0.47366428 -0.46012881 -0.75094843 0.0036492681
0.049681045 0.43257537 0.27986017 -0.60147506 -0.47365826 -0.64333159 0.0031382311
0.048171218 0.42896679 0.28482518 -0.69704133 -0.41395536 -0.58546925 0.011653452
0.052012879 0.42616028 0.28203782 -0.7068556 -0.11419024 -0.69808 0.022095794
0.05554625 0.42616028 0.27879661 -0.6424647 -0.13502689 -0.75432533 0.014183496
0.051470455 0.42876312 0.28149962 -0.66925514 -0.29776347 -0.6807602 0.021364927
0.047843002 0.42616028 0.28702703 -0.80580318 -0.21115495 -0.5532583 0.020658512
0.043150641 0.43282944 0.2868309 -0.71872509 -0.47587886 -0.50692564 0.0030466556
0.040735539 0.4362087 0.2867431 -0.79546916 -0.31084606 -0.52019554 0.010889947
0.042278662 0.43949363 0.28305441 -0.79829699 -0.16293658 -0.57980484 0.0066416687
0.043546211 0.45442906 0.284888 -0.71690035 0.25816435 -0.6476149 0.0001628352
0.047028638 0.43949363 0.27776501 -0.65312934 -0.22929372 -0.72169685 0.0066030701
0.047540769 0.44282696 0.27758217 -0.66177815 -0.11959866 -0.74009854 0.0031247325
0.048687171 0.4528589 0.27858475 0.50423253 -0.63809818 0.58187658 0.00058085279
0.052432105 0.4529891 0.27543092 -0.6880011 -0.04285508 -0.72444326 0.00098002073
0.044407096 0.44282696 0.2809653 -0.75283343 -0.12667584 -0.64590639 0.0044945022
0.046217691 0.45402929 0.28147081 -0.65291327 0.34336603 -0.67513251 0.00065065129
0.039217051 0.43282974 0.29339305 -0.78146404 -0.49690008 -0.37736487 0.002752281
0.042762 0.42979458 0.2916466 -0.76821786 -0.47806802 -0.42578444 0.0079710893
0.038266644 0.43568879 0.29148835 -0.84300232 -0.34967187 -0.40875006 0.010719681
0.037755646 0.43155542 0.29922134 -0.82785791 -0.48271611 -0.28572094 0.0041612443
0.041201837 0.42621484 0.30009043 -0.9137488 -0.30963382 -0.26303992 0.016340116
0.035770092 0.4363037 0.29679441 -0.87381732 -0.35615507 -0.33105409 0.0024664628
0.044041838 0.42598587 0.29333761 -0.83393329 -0.30431128 -0.46038026 0.01939328
0.037564743 0.43949363 0.29111037 -0.86205685 -0.24710821 -0.44248781 0.0063780486
0.038638812 0.44282696 0.28963801 -0.90511388 0.011339576 -0.42501804 0.0038897151
0.041972712 0.45911133 0.28840047 -0.84667838 0.12680463 -0.51677489 0.0011754994
0.038442317 0.45281887 0.29339489 -0.90895218 0.17566279 -0.3780854 0.00019541671
0.034310874 0.43949363 0.29972881 -0.94332504 -0.13054904 -0.30511439 0.010194073
0.035810903 0.44705608 0.29762736 -0.92496103 0.11674095 -0.36168873 0.00013944418
0.054988664 0.4711943 0.27703851 -0.67316258 0.031364426 -0.73882908 0.00012225054
0.051406763 0.47230676 0.28006873 0.011198327 -0.94656497 0.32231876 0
0.048183106 0.47325975 0.28333125 -0.68609601 0.13419177 -0.71502787 0.0010751347
0.045263562 0.47450674 0.28700081 -0.76824617 0.12252171 -0.62832022 0.0011944816
0.038987413 0.46386862 0.29547197 -0.89718783 0.082026869 -0.43396482 0
0.041897222 0.47633117 0.29237548 -0.86123323 0.12670381 -0.49216202 0.00053097564
0.039139226 0.47220236 0.29673687 -0.90567893 0.098411597 -0.41238442 0.00026564804
0.037830494 0.42881256 0.30590269 -0.840563 -0.51898825 -0.15525818 0.0025914358
0.039502095 0.42616028 0.30672133 -0.88126224 -0.44729456 -0.15265796 0.0097297765
0.033806995 0.43616027 0.303388 -0.88950008 -0.40025246 -0.22042599 0.0058939401
0.035007786 0.43347788 0.3033191 -0.86848527 -0.44772398 -0.2127828 0.0061854739
0.038560197 0.42642242 0.31338802 -0.87317389 -0.48589116 -0.038432755 0.0078442814
0.035585325 0.4301379 0.31338802 -0.8681879 -0.49407643 -0.046241015 0.0070382901
0.034188889 0.43247336 0.31005469 -0.88615263 -0.45270646 -0.098945878 0.0075418199
0.032630872 0.43616027 0.31005469 -0.95917779 -0.26901108 -0.087240934 0.01567865
0.035004776 0.45414922 0.3026709 -0.9545173 0.10183557 -0.28022528 0.0028148347
0.032864548 0.43949363 0.30672133 -0.98877984 -0.1002013 -0.11078821 0.0068130093
0.03395579 0.45324361 0.30672133 -0.96108729 -0.068750679 -0.26755279 0
0.033253588 0.44991028 0.31005469 -0.99021494 0.076564856 -0.11667165 0.00128145
0.032455955 0.43949363 0.31338802 -0.98588824 -0.1669244 0.012669416 0.011278011
0.032827158 0.44449362 0.31338802 -0.99915749 0.038016412 0.015460799 0.00085702195
0.038934849 0.42616028 0.32005468 -0.84947723 -0.51597434 0.11026754 0.0041193916
0.036203258 0.42969331 0.32005468 -0.84861153 -0.5210979 0.091189206 0.002474841
0.033838809 0.43282694 0.31672135 -0.91840124 -0.39056268 0.063245967 0.012128606
0.032681175 0.43616027 0.31672135 -0.97631764 -0.20816188 0.058928572 0.0092907296
0.040881805 0.42580464 0.32853287 -0.80320591 -0.55391955 0.2191654 0.0038593817
0.037957743 0.42892542 0.32752061 -0.82914197 -0.52360666 0.19585618 0.0031660008
0.034813855 0.43278056 0.32427377 -0.87312138 -0.4573305 0.16884299 0.0039389012
0.033925615 0.43602723 0.32424429 -0.94856113 -0.26504892 0.17314999 0.0068927901
0.032875657 0.44199362 0.31838802 -0.9945966 -0.022943102 0.1012487 0.0022374245
0.032983184 0.45116028 0.31672135 -0.99869913 0.040056527 0.031551376 0.0014545188
0.03352559 0.44657695 0.32255468 0.99068302 -0.03726754 -0.13098998 0.0017271144
0.034802426 0.44953969 0.32753143 0.90781683 0.19125074 -0.37321812 0.00025552473
0.034089051 0.46803528 0.31338802 -0.99565995 0.041232456 -0.083433867 0.00077671598
0.036451317 0.47241029 0.303388 -0.94306111 0.08976084 -0.32027909 0.00080778426
0.035267353 0.47644064 0.30945078 -0.97849423 0.12361802 -0.16512957 0.0011541289
0.03370595 0.46116027 0.32005468 0.99191076 -0.11244182 -0.058904633 3.8002102e-007
0.034612313 0.46616027 0.3257795 0.98193365 -0.028571127 -0.18705633 0.00041732212
0.034298278 0.47491029 0.31672135 -0.9932918 0.10437413 -0.049773328 0.00064887322
0.034291908 0.47366029 0.32172135 0.99467641 -0.074501708 -0.071192063 0.00099998841
0.035311285 0.47772411 0.32685211 0.95985186 -0.1809791 -0.2143151 0.0045552864
0.059821427 0.42616028 0.27572963 -0.54670036 -0.09994448 -0.83134216 0.014137926
0.060353749 0.42949361 0.27463156 -0.49946445 -0.30388197 -0.81128973 0.015330732
0.10716615 0.42616028 0.27526498 0.4982419 -0.12557054 -0.85789686 0.015718421
0.10672584 0.4294602 0.2740325 0.50423044 -0.3413896 -0.79322439 0.011414873
0.11013293 0.46956939 0.27565444 0.36340934 -0.88667357 -0.28590828 0
0.10422379 0.48002401 0.2743772 0.43724164 0.24916267 -0.86413985 0.00072604546
0.0081948284 0.37633651 0.33308548 0.67277187 -0.67649877 -0.29954526 0.000146074
0.012818906 0.38159603 0.33083579 0.62397289 -0.72086114 -0.30169025 0.00032147701
0.012646041 0.37523296 0.3427301 0.61427182 -0.67530501 -0.40820736 0.000173432
0.016434848 0.38138559 0.33771479 0.60454839 -0.70217711 -0.37612304 0.00074573356
0.019737838 0.38755035 0.33003682 0.58066106 -0.75424588 -0.30650592 0.00041007975
0.025577042 0.38726687 0.33988953 nan nan nan nan
0.019793473 0.38004848 0.34491596 0.59291011 -0.6960116 -0.40500051 4.4819561e-005
0.028397335 0.38441199 0.34812674 0.56605899 -0.69945699 -0.43627647 0
0.024459558 0.37778386 0.35364711 0.51927918 -0.69043696 -0.50363284 0.00023929165
0.034615159 0.39469436 0.33699998 0.56392717 -0.73583096 -0.37488541 0.00015091372
0.034918491 0.39148813 0.34332195 0.41948131 -0.79971141 -0.42953116 0.00045786405
0.044249319 0.39780888 0.34256607 0.4845897 -0.72000676 -0.49675262 0.0030331626
0.040198695 0.39242125 0.34669924 0.42690253 -0.74528253 -0.51216042 0.00035267978
0.038301792 0.38690674 0.35345763 0.39883739 -0.74861884 -0.52962124 0.00072273012
0.046508946 0.39269373 0.35114205 0.40608972 -0.74437463 -0.53009206 0
0.05167558 0.3964245 0.3498688 0.35154539 -0.64284688 -0.68056136 0.00069090666
0.039301585 0.39939007 0.33454448 0.59816819 -0.66404498 -0.44859666 0.0042977389
0.04182943 0.40258947 0.33356664 0.73142254 -0.46716401 -0.49676839 0.0073483032
0.043220598 0.41116029 0.32838801 0.85538846 -0.27631816 -0.43813118 0.0088670952
0.044119127 0.40599883 0.33332241 0.75272685 -0.43065315 -0.49793577 0.00579732
0.045121722 0.41149545 0.33157325 0.85500193 -0.23425254 -0.46270669 0.011153641
0.04692407 0.40235513 0.33983275 0.61109507 -0.50393337 -0.61042112 0.0057073436
0.048148498 0.40790102 0.33739334 0.71693069 -0.300758 -0.62893164 0.0044998419
0.045371737 0.41616029 0.33040956 0.88833982 0.043567337 -0.45711511 0.011834785
0.04473611 0.41949362 0.32972676 -0.90643966 -0.2068637 0.36820459 0.028830159
0.043982431 0.42209908 0.33005467 -0.83571953 -0.42496765 0.34781498 0.011939366
0.045019478 0.42305595 0.33384362 -0.74872911 -0.52470475 0.40507969 0.013000051
0.04960667 0.41282696 0.3372373 0.77133042 -0.1093952 -0.6269626 0.0085863387
0.048265219 0.41616029 0.3352173 0.80989563 0.074959144 -0.58176464 0.014041095
0.052823879 0.41616029 0.34062436 0.71723413 0.12257098 -0.68596768 0.017846495
0.047975607 0.41949362 0.33567008 0.77935165 0.32682687 -0.53459811 0.023567637
0.04869869 0.42299104 0.34018791 -0.68584943 -0.54576272 0.48140785 0.0092632147
0.051058866 0.41949362 0.33978212 0.69466424 0.3457751 -0.63077819 0.017953636
0.052520979 0.39973724 0.34692073 0.50070751 -0.51102257 -0.69867581 0.005858745
0.05459214 0.40282059 0.34590638 0.54390574 -0.44387713 -0.7121374 0.0085857073
0.051998213 0.40790492 0.34145018 0.6520167 -0.2905114 -0.70034093 0.0062529873
0.055211015 0.40564546 0.34493577 0.50434494 -0.34423396 -0.7919212 0.0055796066
0.057296503 0.41116029 0.34482047 0.57515812 -0.09639857 -0.81234252 0.011241599
0.05442154 0.41282696 0.34225765 0.72110426 6.785708e-005 -0.69282651 0.015312626
0.052666143 0.42198819 0.34393167 -0.62817949 -0.51108801 0.58666825 0.016435973
0.056995645 0.41949362 0.34565881 0.57610244 0.40760311 -0.70849532 0.024318524
0.055729661 0.42301795 0.3481288 -0.48387587 -0.60162842 0.63553715 0.0043752431
0.025449604 0.37410855 0.35929066 0.50864828 -0.6587286 -0.55439478 0.00030424498
0.033145592 0.38161412 0.35665032 0.45288071 -0.70489562 -0.54591334 0.00049250521
0.03123189 0.37466222 0.36357579 0.44965789 -0.67858195 -0.58080477 0.00060079206
0.03787211 0.37540084 0.36740154 0.39170057 -0.67347187 -0.6269021 0.00065792061
0.039750826 0.38053471 0.36279917 0.38037157 -0.71124011 -0.59114718 0.00026039852
0.046424828 0.37836844 0.3691037 0.33258179 -0.70081645 -0.63106704 2.0906073e-005
0.045742229 0.38762957 0.35767996 0.36131138 -0.74203181 -0.56466156 0
0.056585655 0.39217287 0.35754427 0.24453035 -0.72182065 -0.64744109 0.0011179238
0.050982293 0.38535979 0.36357346 0.30017135 -0.76546103 -0.56918055 0
0.056824531 0.38778174 0.36332121 0.24827023 -0.74746901 -0.61615902 0.00016835319
0.054579787 0.37964082 0.37146479 0.2651321 -0.6745159 -0.68900883 0.00038215832
0.059708714 0.39930004 0.35154647 0.42070365 -0.57519406 -0.70154124 0.0083450666
0.064243883 0.40277246 0.35114908 0.26069304 -0.45244157 -0.85283983 0.004578182
0.061826006 0.40792769 0.34818843 0.46170226 -0.22653991 -0.85761929 0.0090358062
0.066710584 0.40782693 0.35046083 0.32092625 -0.19761699 -0.92625803 0.0087497877
0.072609939 0.40603864 0.35254869 0.19236961 -0.25853068 -0.94665504 0.0072687785
0.073391199 0.40942639 0.35206908 0.19601679 -0.11570267 -0.97375065 0.0067428118
0.058054555 0.41616029 0.34529114 0.62679738 0.24427424 -0.73990208 0.01822491
0.063028522 0.41282696 0.34805754 0.46742851 0.044922695 -0.88288873 0.0058065713
0.063718587 0.41616029 0.34871128 0.47637114 0.18637738 -0.85926372 0.019431846
0.068377256 0.41282696 0.35042709 0.32878214 0.019323383 -0.94420809 0.0049121538
0.068377256 0.41616029 0.35075602 0.32665682 0.21300392 -0.92082822 0.017488535
0.061524708 0.41909641 0.34849873 0.42410833 0.42322272 -0.80063391 0.0184542
0.059214536 0.42292526 0.35037643 -0.43716931 -0.59675747 0.67287695 0.0076076775
0.066658303 0.41943455 0.35116914 0.33022171 0.35465109 -0.87474352 0.008171401
0.065043919 0.42234185 0.35298637 -0.28605637 -0.5984906 0.74831867 0.0069252485
0.073633626 0.41282696 0.35189992 0.19247127 0.063984193 -0.97921437 0.0088149616
