# .PCD v0.7 - Point Cloud Data file format
VERSION 0.7
FIELDS x y z
SIZE 4 4 4
TYPE F F F
COUNT 1 1 1
WIDTH 1415
HEIGHT 1
VIEWPOINT 0 0 0 1 0 0 0
POINTS 1415
DATA ascii
0.13138536 0.17895177 0.17104113
0.13052692 0.18204491 0.16654843
0.13056959 0.18448488 0.16799021
0.13042444 0.18568718 0.16755609
0.13051973 0.18604335 0.16837613
0.13075216 0.18211196 0.16799383
0.13115771 0.18240656 0.17093953
0.13092344 0.18599871 0.17106634
0.12903285 0.18886763 0.1610862
0.12866743 0.19229479 0.16103603
0.12971535 0.18865813 0.1645149
0.12940566 0.19212827 0.16451567
0.12825637 0.19574669 0.16093017
0.12717399 0.19938576 0.15837868
0.12786262 0.19931854 0.16108482
0.12904908 0.19554062 0.16441953
0.12865882 0.19897069 0.16437064
0.13022873 0.1883228 0.16752422
0.13002975 0.19175833 0.168026
0.13052422 0.18869974 0.16978516
0.13054356 0.19069605 0.1711127
0.13040806 0.19224612 0.1709923
0.13072498 0.18879305 0.17122754
0.12969492 0.19535817 0.16789363
0.12935959 0.19881187 0.16783224
0.13021317 0.1950402 0.17117462
0.12993635 0.19861542 0.17136699
0.11049197 0.21264966 0.1449897
0.11205004 0.20570597 0.14778601
0.11217907 0.20356536 0.14779782
0.11322459 0.20532037 0.15074812
0.12393671 0.20111175 0.14799437
0.12361674 0.20235114 0.14755493
0.123206 0.20501746 0.14748232
0.12383747 0.20271909 0.14839236
0.12386566 0.20540629 0.14970182
0.11176994 0.20881531 0.14758608
0.11156813 0.21257034 0.14769487
0.11306085 0.20804526 0.15069193
0.11289618 0.21153654 0.15076424
0.12279142 0.20853204 0.14792468
0.12195896 0.21243598 0.14757884
0.12394824 0.20797254 0.15131827
0.12364989 0.20903113 0.15089054
0.12317782 0.211716 0.15080352
0.11469755 0.20021804 0.15489233
0.11459406 0.20279217 0.15470137
0.11401185 0.20254993 0.15274875
0.11412203 0.20021278 0.15287708
0.11384214 0.20537719 0.15255372
0.11452547 0.20619823 0.15479285
0.11552618 0.20225978 0.15777923
0.11543826 0.2055276 0.15775891
0.11380838 0.20880966 0.15291165
0.11438861 0.20954743 0.15472856
0.1137888 0.21219295 0.15319565
0.11428674 0.21255486 0.15462312
0.11533561 0.20902893 0.15773481
0.1151785 0.21230936 0.15734285
0.12383568 0.20938408 0.15171844
0.12383058 0.21203515 0.15325743
0.11058806 0.21553668 0.14573222
0.110677 0.21859299 0.14624244
0.11072943 0.22184074 0.14602773
0.11056636 0.22483566 0.14473277
0.11150759 0.21611661 0.14797093
0.11146221 0.21924414 0.14790641
0.11285589 0.21534973 0.15099356
0.11276533 0.21908696 0.15070738
0.12054418 0.21566664 0.14573573
0.12139542 0.21595246 0.14814959
0.12057807 0.21830803 0.14749444
0.12073457 0.21859723 0.14817749
0.12263841 0.21524239 0.1513764
0.12153476 0.21897684 0.15110789
0.11197731 0.2222182 0.14828686
0.11252245 0.22508921 0.14707859
0.11687372 0.22516032 0.14554979
0.11325403 0.22188191 0.15095426
0.11415222 0.22335042 0.15129098
0.11406372 0.225091 0.1491033
0.11527153 0.22508003 0.15095919
0.12043177 0.21925361 0.14795429
0.1192524 0.2222347 0.14776805
0.11752051 0.22504975 0.14817517
0.12027719 0.22184142 0.15050368
0.12004028 0.22235748 0.15056148
0.11801806 0.22470398 0.15065822
0.11392874 0.21537814 0.15364848
0.1144275 0.21513265 0.15502857
0.11385851 0.21860699 0.15314825
0.1145879 0.21821363 0.15497665
0.11543142 0.21553493 0.15777203
0.11594155 0.21893659 0.15798832
0.12385141 0.21391347 0.15446541
0.12346541 0.21559161 0.15440783
0.12277555 0.21845695 0.15474945
0.1238709 0.21553536 0.15575731
0.12384945 0.21755788 0.15776196
0.12340501 0.21881223 0.1577048
0.11381713 0.22157168 0.15216808
0.11517957 0.22162704 0.15453546
0.11696897 0.22398806 0.15392648
0.11751736 0.22479816 0.15180722
0.1168434 0.22171855 0.15743354
0.11729658 0.22242355 0.15696262
0.12015586 0.22224344 0.15145987
0.1210795 0.2216641 0.15462185
0.119693 0.22303541 0.15443167
0.12197079 0.22136483 0.15807182
0.12013172 0.22250636 0.15774779
0.11649728 0.20175461 0.16092658
0.11632318 0.20496754 0.16056137
0.11715572 0.20177789 0.16312702
0.11707658 0.20525418 0.16302747
0.11754288 0.20260389 0.16488272
0.1174921 0.20602363 0.16480082
0.11637178 0.20855804 0.16093983
0.1162664 0.21246056 0.16052404
0.11719786 0.20876437 0.16360337
0.11713126 0.21199191 0.16321686
0.11750174 0.20878421 0.1648927
0.11753746 0.21148925 0.16487952
0.11823942 0.20179771 0.16814715
0.11809468 0.20525645 0.16755499
0.11894184 0.20174851 0.17145921
0.11884492 0.20510906 0.17088778
0.11811808 0.20852403 0.16762459
0.11837151 0.21206576 0.16798714
0.11899418 0.20886038 0.17115669
0.11940435 0.21253242 0.17147255
0.11649022 0.21598575 0.16069876
0.11691101 0.21861221 0.16076128
0.11720487 0.21542658 0.16278231
0.11722046 0.21830381 0.16163762
0.12377053 0.21876599 0.15926877
0.11777437 0.2148973 0.1648488
0.11847336 0.21853012 0.16435923
0.11739755 0.21939436 0.16101858
0.11747785 0.22170392 0.15847471
0.11911133 0.22160344 0.16115971
0.12356648 0.21983863 0.1612936
0.12180194 0.22167893 0.16119708
0.1207015 0.22201592 0.16070542
0.12049385 0.22098969 0.16410157
0.12073607 0.22175613 0.16221657
0.12307269 0.22043145 0.16416346
0.11897287 0.21571919 0.16813135
0.11982904 0.21859111 0.16744466
0.11988325 0.21549118 0.17107557
0.12075876 0.2173111 0.17100395
0.12092312 0.21862797 0.16918708
0.12157381 0.21850434 0.17096765
0.12068477 0.21970817 0.16694775
0.12343474 0.21981636 0.16740163
0.12365804 0.2190619 0.17059056
0.1246965 0.2026646 0.15108065
0.12434688 0.20546781 0.15130602
0.12575588 0.20212324 0.15442306
0.12520613 0.20571491 0.15431038
0.12666979 0.20166826 0.1575243
0.12630738 0.20512185 0.15798059
0.12466449 0.2093318 0.15440609
0.12422567 0.21212478 0.15457739
0.1256738 0.20880087 0.15775821
0.12495917 0.21251008 0.15753217
0.1244249 0.21548742 0.15780896
0.12719087 0.20206472 0.15986682
0.12756002 0.20212109 0.16131721
0.12724641 0.20438497 0.16133732
0.12697414 0.20568034 0.16092038
0.12821996 0.2024108 0.16427779
0.12714383 0.20601645 0.16180722
0.12776731 0.2059475 0.16443257
0.12656966 0.20828512 0.16087762
0.12604927 0.21182445 0.16136134
0.12713166 0.20865689 0.16347557
0.12737854 0.20874567 0.16463582
0.12713575 0.20995255 0.16451241
0.12671939 0.21219078 0.16446064
0.1289802 0.20220391 0.16775286
0.12852374 0.20564646 0.167704
0.12958713 0.20209543 0.17121913
0.12918299 0.20551041 0.17112589
0.12794361 0.20916454 0.16753463
0.12714486 0.2121442 0.16642956
0.12747978 0.21208663 0.16788383
0.1286402 0.20893696 0.17103292
0.12794724 0.21242154 0.17084324
0.12507153 0.21570612 0.16085581
0.12424296 0.21865158 0.16121864
0.12607457 0.21513496 0.16474311
0.12459424 0.21853627 0.16424224
0.12710549 0.21376771 0.16784599
0.12659197 0.21554066 0.16776238
0.12531872 0.21808022 0.16785841
0.12697184 0.21553965 0.16999529
0.1273282 0.2152231 0.17137563
0.12535156 0.21808524 0.17117181
0.12693773 0.21597509 0.17167895
0.1187354 0.18273403 0.1805834
0.11927292 0.18575934 0.18025815
0.11908555 0.18611106 0.17791389
0.11905491 0.18309373 0.18243526
0.11906108 0.18900375 0.17524174
0.11919482 0.19207458 0.17459105
0.11938119 0.18876167 0.17780915
0.11884748 0.18656199 0.17559017
0.11966579 0.19213378 0.17786248
0.11935493 0.19544937 0.17444091
0.11948519 0.19880408 0.17455445
0.11987116 0.19561587 0.17786828
0.12002414 0.19905409 0.17786306
0.11976649 0.18946595 0.1807045
0.12011253 0.19257735 0.18142106
0.12018249 0.18995982 0.18469034
0.12037133 0.19220778 0.18443331
0.12027434 0.19610195 0.1808733
0.1203949 0.19882196 0.18070769
0.12048883 0.19397549 0.18450028
0.12050101 0.1957248 0.18333009
0.1205903 0.19554792 0.18468831
0.12052872 0.19888812 0.18188567
0.12071973 0.19828437 0.18467955
0.11976951 0.18335967 0.19504626
0.12010136 0.18591329 0.1946259
0.12009545 0.18614364 0.1919702
0.11972186 0.18322702 0.19755445
0.11940913 0.18109483 0.19528714
0.12001959 0.18553469 0.1976617
0.12049998 0.19121639 0.18792884
0.1204944 0.19225965 0.18629582
0.12033785 0.18908353 0.18872783
0.12057519 0.1923611 0.18778111
0.12038299 0.18861385 0.19176731
0.12051769 0.1901705 0.19111238
0.12067255 0.19249074 0.19050902
0.12072396 0.19522673 0.18751116
0.12093285 0.19866267 0.18775135
0.12088513 0.19562335 0.19089009
0.12112325 0.19889931 0.19107033
0.1204186 0.18860321 0.1947735
0.12053192 0.18979634 0.19455293
0.12075694 0.19270779 0.19403046
0.12034686 0.1881693 0.19739951
0.12049 0.18956423 0.19774541
0.12072229 0.19231848 0.19791348
0.12098692 0.1959137 0.19396715
0.12125107 0.19889931 0.19431107
0.12099378 0.19562161 0.19718042
0.1213439 0.19889931 0.19764338
0.13192973 0.17551039 0.17445922
0.13178153 0.17884372 0.17445922
0.13218592 0.17547071 0.17783223
0.13206421 0.17884372 0.17779255
0.13159572 0.18220592 0.17441954
0.13136937 0.18566313 0.17434865
0.13191772 0.18217707 0.17779255
0.13174111 0.1855104 0.17779255
0.13235115 0.17548659 0.18126081
0.1322547 0.17884372 0.18112588
0.13242722 0.1751612 0.18474494
0.13235883 0.17861886 0.18449891
0.13213594 0.18217707 0.18112588
0.1319862 0.1855104 0.18112588
0.132264 0.18199188 0.18445921
0.13213778 0.18532522 0.18445921
0.13055831 0.19233344 0.17222039
0.13109273 0.18927659 0.17420205
0.13087873 0.19270109 0.17472216
0.1315181 0.18889908 0.17773184
0.13125779 0.19236659 0.17773329
0.13055772 0.19497789 0.17385338
0.13049243 0.1963682 0.1742765
0.13030586 0.19888343 0.17435594
0.130521 0.19879927 0.17618185
0.13064156 0.19532324 0.17469758
0.13094911 0.19584568 0.17753504
0.13071638 0.19876291 0.17784375
0.13180333 0.18884373 0.18112588
0.13158002 0.19217707 0.18112588
0.13197686 0.18871146 0.18449891
0.13177292 0.19213741 0.18449891
0.13129932 0.19560637 0.18102147
0.1309631 0.1991493 0.1807697
0.13153173 0.1955104 0.18445921
0.13121921 0.19895425 0.1842926
0.13241468 0.17519929 0.18799254
0.13237722 0.17815588 0.18783224
0.13232931 0.17576118 0.19076397
0.13229331 0.17880933 0.19097508
0.13230348 0.18143632 0.18779255
0.13220058 0.18476965 0.18779255
0.13222651 0.18204743 0.19107033
0.13213006 0.18532522 0.19112588
0.13214999 0.17587775 0.19401251
0.13214868 0.17922467 0.19396715
0.13185264 0.17558977 0.1976206
0.1319138 0.17897865 0.19710207
0.13208033 0.18223262 0.19431107
0.13198775 0.1855104 0.19445921
0.13184258 0.1822723 0.19760472
0.13176821 0.18556595 0.19773699
0.13206469 0.1881559 0.18783224
0.13188128 0.19173263 0.18807827
0.13200854 0.1886559 0.19122112
0.13186747 0.19168501 0.19150683
0.13165417 0.19528554 0.18783224
0.13137719 0.19869825 0.18775599
0.13169539 0.19476703 0.19122112
0.13145511 0.198103 0.19112588
0.131883 0.18878818 0.19451477
0.13175108 0.19202894 0.19451477
0.13167481 0.18884373 0.19779254
0.13155514 0.19217707 0.19779254
0.13157675 0.19532523 0.19445921
0.13133474 0.19869825 0.19447809
0.13139218 0.1955104 0.19779254
0.13114823 0.19893359 0.19791493
0.11955358 0.2021533 0.17452434
0.11963075 0.20565775 0.17441145
0.12014287 0.20269388 0.17772661
0.1202455 0.20599473 0.17744577
0.11988104 0.20918113 0.17470436
0.1201296 0.21209636 0.17442818
0.12042519 0.20864607 0.17750213
0.12069082 0.20960067 0.17798337
0.12061455 0.21206625 0.17611755
0.12113731 0.21220243 0.1780062
0.12046082 0.20043449 0.18063579
0.12052171 0.20259266 0.18029712
0.12061927 0.20196408 0.18139999
0.1205347 0.20546465 0.17935318
0.12077963 0.20488501 0.18145129
0.12089574 0.20176533 0.18444151
0.1211682 0.20530349 0.18446472
0.12053812 0.20826806 0.17824404
0.12108088 0.20831977 0.18114091
0.1220726 0.2121029 0.18119234
0.12175929 0.20879094 0.18457976
0.12287235 0.21180734 0.1849173
0.1206952 0.21410248 0.17452347
0.12075496 0.21553634 0.17311434
0.12160112 0.21562599 0.17472377
0.12381955 0.21776682 0.17468986
0.1234852 0.21812114 0.17330319
0.12209959 0.21480288 0.17764872
0.12397345 0.21658725 0.1774772
0.12364548 0.2150843 0.180398
0.12452383 0.21556051 0.18046033
0.12419616 0.21360469 0.18443805
0.12430303 0.21489927 0.18166547
0.12118629 0.2021374 0.18775959
0.12159657 0.20556922 0.18783577
0.12143578 0.20217708 0.19112588
0.12195404 0.20552535 0.19126168
0.12246231 0.20900983 0.18815824
0.12361 0.21181317 0.18761188
0.12288315 0.2085444 0.19172354
0.12396962 0.21077165 0.19108659
0.12417844 0.21189353 0.18874122
0.12164368 0.20217708 0.19445921
0.1222598 0.20545441 0.19468687
0.12185113 0.2022938 0.19777948
0.12268662 0.20567027 0.19815625
0.12331956 0.20842479 0.19494548
0.12442402 0.20991898 0.194203
0.12375591 0.20843829 0.19760902
0.12420669 0.20896575 0.1972207
0.12408648 0.21239798 0.18729213
0.13009758 0.20183192 0.17478652
0.12968588 0.20540692 0.17456312
0.13053331 0.20062564 0.17779179
0.13037905 0.20223145 0.17773958
0.13009672 0.20523852 0.17820166
0.12919056 0.20878819 0.17440367
0.12855354 0.21200292 0.1743578
0.12951384 0.20879515 0.17775288
0.12890005 0.21178225 0.17746548
0.1305308 0.20217727 0.17938644
0.13052663 0.20366901 0.181256
0.13030012 0.20574291 0.18158503
0.13052563 0.20508468 0.18390326
0.1304615 0.20568478 0.18420458
0.13070275 0.20207362 0.1811704
0.1308735 0.20224188 0.18396078
0.12975103 0.20873535 0.18127717
0.12875654 0.21221897 0.18085761
0.13005616 0.20826621 0.18462293
0.1289103 0.21153791 0.1846213
0.12746581 0.21514803 0.17433047
0.12628807 0.21644092 0.17441316
0.1277117 0.21473569 0.17776552
0.1267249 0.21588494 0.17754878
0.12728885 0.21495374 0.18062882
0.12700234 0.21531266 0.18038237
0.12687334 0.21400368 0.18403304
0.12690595 0.21505827 0.18112169
0.1305518 0.20525578 0.18507199
0.1310242 0.20220849 0.18759584
0.13067189 0.20514342 0.18792175
0.13113199 0.20152751 0.19110821
0.1306956 0.20504206 0.19102864
0.13046765 0.20637754 0.18792018
0.1298901 0.20894547 0.18787186
0.12869851 0.21162258 0.18801546
0.13023865 0.20703593 0.19102167
0.12949774 0.20935661 0.19093943
0.12499401 0.21171075 0.19121613
0.12785971 0.21183836 0.19052702
0.13039088 0.20474899 0.19822697
0.13037726 0.20541996 0.19615534
0.1301728 0.20564967 0.19807969
0.13098651 0.20221433 0.19459726
0.13062547 0.20513667 0.19415219
0.1308195 0.20220488 0.19815139
0.12931253 0.20863725 0.19438668
0.13038635 0.2060907 0.19391495
0.12708825 0.21072735 0.194519
0.12714694 0.2114992 0.19256191
0.12909018 0.20810944 0.19778684
0.12695815 0.20971571 0.19746464
0.12686546 0.21302988 0.18749699
0.12677337 0.21226962 0.19066444
0.11417558 0.22608289 0.14729695
0.11662708 0.22563528 0.14817958
0.11722653 0.22524132 0.15062666
0.11995983 0.18603684 0.20094052
0.11947547 0.18633196 0.20798486
0.11975957 0.18640479 0.20505328
0.1194229 0.18431991 0.20553064
0.12027566 0.18842258 0.20051697
0.12050809 0.19067305 0.20091182
0.12067381 0.19243079 0.20100328
0.12014529 0.18895465 0.20411338
0.1204614 0.19183427 0.20465185
0.1205595 0.19234498 0.20387051
0.12098584 0.19557957 0.20094293
0.12143835 0.19917709 0.20068021
0.12052547 0.19252549 0.20504665
0.12090255 0.19553027 0.20484698
0.12141904 0.19887821 0.20383269
0.11983866 0.18874165 0.20757933
0.12027416 0.19176017 0.20727755
0.11945314 0.18881144 0.21097116
0.11896049 0.18614383 0.21169521
0.12002549 0.1920989 0.21052986
0.1205248 0.19375204 0.20781395
0.12083646 0.19585873 0.20819277
0.12142088 0.19890513 0.20733543
0.12052595 0.19497326 0.21056788
0.12066935 0.19581802 0.21089295
0.12135597 0.19887164 0.21125822
0.11598165 0.17593272 0.21810471
0.11550675 0.17323008 0.21641579
0.1166883 0.17864035 0.21784164
0.11708686 0.17892851 0.21630977
0.11704672 0.17783448 0.21535037
0.11731353 0.179159 0.21521121
0.11714286 0.18056075 0.21772201
0.1183937 0.18555543 0.21473226
0.1184161 0.18340594 0.21257754
0.11780872 0.18223119 0.21525671
0.1174299 0.18229412 0.21767443
0.11776037 0.18513246 0.21805412
0.11527753 0.17546436 0.22098328
0.11613016 0.17906106 0.22070715
0.11452704 0.17521395 0.22443663
0.11524508 0.17874299 0.22435834
0.11665513 0.18210132 0.22121231
0.11712073 0.18219009 0.21930049
0.11708625 0.18441291 0.22132212
0.1159715 0.18235001 0.2242568
0.11659962 0.18585543 0.22449948
0.1172001 0.18598743 0.22203489
0.11735065 0.18573366 0.22102283
0.11895975 0.18879969 0.21436955
0.11961354 0.1922747 0.21416423
0.11837513 0.18868764 0.21780662
0.11908763 0.19221383 0.21761413
0.12017819 0.19523598 0.21447214
0.12047919 0.19535153 0.21208322
0.12053844 0.19671583 0.21460357
0.1211831 0.19897813 0.21503375
0.11983709 0.19529182 0.21720177
0.12057965 0.1978583 0.21765012
0.12099234 0.19900896 0.21775231
0.11721321 0.18823767 0.22402842
0.11775069 0.18862379 0.22131196
0.11850443 0.19215623 0.22117142
0.1173403 0.18901728 0.22416158
0.11785687 0.19192669 0.2246964
0.1195059 0.19571735 0.22078079
0.12057193 0.19856974 0.22146021
0.12081501 0.19890565 0.2205205
0.11888894 0.19531913 0.22436178
0.12039044 0.19838101 0.22423731
0.13145226 0.17539047 0.2010956
0.13152577 0.17908126 0.20078856
0.13100213 0.17479523 0.20421077
0.13102682 0.17837009 0.20449506
0.13152921 0.18257098 0.20074493
0.13146155 0.18563232 0.20101477
0.13109039 0.1823305 0.20423654
0.13110313 0.18584728 0.20403725
0.13057612 0.17544213 0.2069564
0.13038802 0.17602924 0.20827119
0.13055292 0.17831703 0.20749478
0.1304542 0.17865208 0.20818099
0.12990254 0.17570794 0.2112399
0.13003305 0.17904574 0.21098882
0.13053812 0.18016627 0.20775981
0.13008919 0.18268885 0.21106394
0.1305162 0.18276542 0.20810889
0.13045782 0.18579251 0.20857635
0.13006353 0.18599042 0.21141657
0.13063611 0.18245134 0.20729712
0.13066609 0.18541442 0.2071258
0.13138533 0.18893112 0.20111002
0.13127139 0.19228044 0.20119552
0.1310012 0.18898067 0.20453881
0.13091165 0.19272672 0.20453535
0.13112332 0.19572453 0.20116159
0.13088319 0.19917379 0.20135663
0.13081433 0.19612272 0.20421815
0.13065886 0.19881043 0.20422113
0.1305321 0.1911359 0.20777196
0.13054375 0.19271865 0.20747653
0.13046542 0.19238494 0.20817226
0.13016759 0.1888182 0.21075176
0.13049152 0.18858139 0.20831013
0.13012919 0.19210023 0.2108613
0.13059087 0.18836546 0.20761119
0.13039744 0.19501027 0.20823845
0.1305443 0.19556357 0.20678835
0.13026193 0.19811553 0.20810062
0.13049729 0.19861183 0.20568107
0.13001819 0.19537294 0.21116531
0.12974955 0.19874966 0.21115364
0.12929244 0.17551039 0.21445923
0.12942258 0.17885607 0.21441956
0.12855347 0.17532521 0.21770246
0.12869197 0.17869148 0.21778341
0.12952122 0.18224144 0.21438538
0.12956657 0.18565765 0.21444568
0.12880002 0.18209739 0.21785797
0.12888926 0.1854904 0.21783224
0.12774362 0.17476964 0.22071612
0.12789921 0.17813592 0.2208398
0.12720402 0.17551039 0.22282405
0.12670729 0.17625114 0.22487186
0.12724395 0.1787931 0.22337003
0.12687303 0.17939305 0.22490728
0.12796545 0.18165182 0.22120515
0.12806636 0.18533574 0.2212754
0.12720832 0.18167458 0.22404563
0.12701869 0.18201184 0.22482382
0.1271863 0.18383643 0.22445077
0.12733956 0.18575391 0.22410476
0.12966 0.18916251 0.21403849
0.12967442 0.19254862 0.21391955
0.12898284 0.18891481 0.2176206
0.1290904 0.1923037 0.2171021
0.12952329 0.19556597 0.21431109
0.1290991 0.19887803 0.21462141
0.12881231 0.19565879 0.21770683
0.12823091 0.19900557 0.21807373
0.12821643 0.1887483 0.22096188
0.12825538 0.19229947 0.22073151
0.12740111 0.18849646 0.2241234
0.12748764 0.1915444 0.22379465
0.1279567 0.19589886 0.22109467
0.12749799 0.19861989 0.22096238
0.12712121 0.19441642 0.22442172
0.1271105 0.19595273 0.22388566
0.12681155 0.19580507 0.22475775
0.12611 0.1983867 0.22437678
0.12714605 0.19835399 0.22212449
0.12199352 0.20225728 0.20111281
0.12286224 0.20520218 0.20173369
0.12208875 0.20211372 0.20447162
0.12315226 0.20505702 0.20493859
0.12399404 0.2075305 0.20113026
0.12424467 0.20854107 0.19870822
0.12421581 0.20670146 0.2042219
0.12235964 0.2022806 0.20786914
0.12356321 0.20501488 0.20756494
0.12278873 0.20235127 0.21126117
0.12451629 0.20435147 0.21137527
0.12415677 0.20503539 0.20880958
0.12407956 0.20566386 0.20718437
0.12257778 0.20171508 0.21452184
0.1241034 0.20345859 0.21416675
0.12244619 0.20137644 0.21773198
0.12415033 0.20262049 0.21762714
0.12108213 0.19907947 0.22179733
0.12331218 0.20157172 0.22083364
0.12400532 0.20206645 0.22070542
0.12115869 0.19918412 0.22458167
0.12386993 0.20048782 0.22392431
0.12389597 0.20178473 0.22130355
0.1297538 0.20557165 0.2008391
0.13044956 0.20305742 0.20065013
0.13046467 0.2003978 0.20439425
0.13034038 0.20240539 0.20222069
0.13011484 0.20229328 0.2045563
0.12904948 0.20513044 0.20450358
0.13062753 0.2020241 0.20090085
0.12508942 0.20831631 0.20140305
0.12783359 0.20837407 0.2003991
0.12687247 0.20880452 0.20064276
0.12690578 0.2073635 0.20420584
0.12732033 0.20812185 0.20185912
0.12980241 0.20174465 0.20759015
0.12831669 0.20481355 0.20788188
0.12880936 0.20218801 0.21132177
0.12694095 0.20465195 0.21142659
0.1269258 0.20496865 0.21035562
0.1267373 0.20614842 0.20721465
0.12819225 0.2018068 0.21487808
0.12677194 0.20353998 0.21429344
0.12737858 0.20171256 0.2175542
0.12696968 0.20221271 0.2172306
0.12678775 0.19971931 0.22118342
0.12685512 0.2017573 0.21838684
0.12507017 0.20180771 0.22087361
0.11044777 0.17371723 0.23785067
0.11359192 0.17458247 0.22817251
0.11392136 0.1753241 0.2274949
0.11441996 0.17840688 0.2277312
0.11303075 0.17582779 0.23118314
0.11381105 0.17588715 0.22846176
0.11359737 0.17863245 0.23127368
0.11380232 0.17838377 0.23033477
0.11500698 0.18197383 0.22799858
0.1157712 0.18551163 0.22775196
0.11390673 0.17975675 0.23093216
0.1143304 0.18221597 0.23102626
0.1148456 0.18521534 0.23140086
0.11181068 0.17524105 0.23463999
0.11278068 0.17909788 0.23423721
0.11089905 0.17561978 0.23774119
0.11145808 0.17865369 0.23793375
0.12383506 0.17504343 0.23385689
0.1235377 0.17538393 0.23479375
0.12383123 0.17770489 0.23443665
0.1225715 0.175574 0.23757218
0.12284697 0.1792587 0.23767684
0.12383603 0.17938074 0.2347696
0.11337208 0.18209524 0.23450379
0.11385096 0.18213172 0.23295026
0.11381644 0.18389446 0.23445277
0.11421126 0.18557861 0.23439962
0.11250807 0.18241467 0.23747304
0.11318252 0.18539013 0.23791438
0.11380406 0.18552421 0.23581879
0.12377191 0.18225016 0.23549232
0.12292983 0.18274793 0.23812874
0.12371632 0.18530405 0.23614003
0.12305818 0.18605934 0.23817162
0.11650157 0.1885291 0.22748052
0.11714613 0.18888471 0.22503334
0.11711065 0.19099821 0.2276267
0.11589806 0.1890052 0.23081736
0.11670803 0.19205515 0.23120484
0.11719006 0.19221568 0.22903493
0.11747745 0.19229758 0.22766553
0.11728999 0.1935636 0.23132482
0.11850154 0.19523729 0.22804689
0.12023642 0.19801299 0.22706932
0.11835688 0.19542475 0.2316484
0.12075493 0.19743675 0.23080307
0.12073821 0.19826245 0.22803113
0.12350494 0.19665861 0.23093958
0.12341521 0.19826436 0.22842818
0.11492771 0.18854542 0.23471779
0.11617374 0.19201131 0.2341571
0.11377805 0.18731792 0.23783655
0.11432232 0.18886323 0.23772736
0.11545975 0.19165516 0.23804136
0.12371974 0.18856877 0.23617958
0.12304097 0.1889621 0.23808494
0.1226183 0.19195889 0.23786977
0.12378915 0.19161674 0.23540843
0.11734295 0.19448191 0.23420507
0.1172564 0.19428223 0.23720832
0.11809395 0.19536087 0.23481384
0.12359475 0.19374609 0.23460597
0.12357904 0.19524777 0.23310259
0.12286503 0.19524653 0.23445402
0.12078712 0.19649711 0.23407497
0.11810045 0.19511916 0.23767443
0.12114269 0.19506361 0.23701178
0.12026866 0.19547024 0.23713908
0.10958324 0.17585105 0.2415168
0.11042716 0.17562933 0.23929413
0.11025631 0.17855525 0.24153206
0.11044754 0.17830327 0.24085228
0.10825952 0.17524287 0.24444306
0.10917676 0.17892662 0.24445617
0.11052433 0.17916268 0.24120542
0.10995633 0.1819512 0.2446599
0.1105741 0.18204278 0.24300046
0.11053465 0.18359484 0.24447471
0.10669225 0.17519911 0.24805923
0.10710715 0.17498308 0.2470551
0.10727739 0.17657274 0.24758829
0.10796013 0.17905524 0.24751781
0.10532851 0.17563777 0.25105885
0.10616307 0.17899042 0.25149959
0.10716554 0.17895848 0.24923515
0.10881014 0.18222114 0.24776107
0.10977141 0.18532498 0.24800166
0.11051696 0.18546546 0.24624901
0.10714741 0.1815303 0.25113082
0.10767978 0.18263693 0.25083068
0.10869855 0.18555537 0.25113913
0.12126008 0.17496499 0.24067681
0.12156297 0.17823498 0.24073839
0.12052932 0.17554566 0.24251381
0.11964925 0.17605273 0.24477513
0.1205722 0.17878945 0.24319869
0.11990311 0.17929451 0.24494733
0.11134814 0.18194431 0.24065478
0.11219565 0.18543796 0.2410761
0.11120483 0.185645 0.24429612
0.12170049 0.18178032 0.24118611
0.12185181 0.18541498 0.24136467
0.12052841 0.18166958 0.2439546
0.12017331 0.18196778 0.24486598
0.12045966 0.18365733 0.24446833
0.12066262 0.18548805 0.24420309
0.11723305 0.1754434 0.2498925
0.11653809 0.17585944 0.25148293
0.11719543 0.17831872 0.25068882
0.11685773 0.1785349 0.25144872
0.11830587 0.17494161 0.24750613
0.11850812 0.17847967 0.24792762
0.11716963 0.18008757 0.25109228
0.11890237 0.18213181 0.24777512
0.11911385 0.18558463 0.24750774
0.12040278 0.18558811 0.2447916
0.1175608 0.18232337 0.25069234
0.11762507 0.18486725 0.25065705
0.11061441 0.18717822 0.24792305
0.11029974 0.18846688 0.2518394
0.1108679 0.18860734 0.25013465
0.11114907 0.18911952 0.25163552
0.11320329 0.18855177 0.24140544
0.11382566 0.18875545 0.23963195
0.11388973 0.19001222 0.241411
0.11523646 0.19202018 0.24158503
0.11231867 0.18854733 0.2445121
0.11404611 0.19117689 0.24424189
0.11485683 0.19194582 0.24447049
0.12182639 0.1890213 0.24101625
0.12122807 0.19190827 0.24077222
0.12043665 0.18782206 0.24439679
0.12037004 0.18927136 0.2440062
0.12009383 0.18908973 0.24476069
0.11907471 0.19151676 0.24456853
0.12018292 0.19188386 0.24221568
0.11756865 0.19377968 0.24058123
0.11729408 0.19282225 0.24399239
0.12041603 0.19315872 0.24059255
0.12032852 0.1948545 0.23816487
0.11176289 0.1888811 0.24788709
0.11411935 0.19116551 0.2472761
0.11663476 0.19106887 0.24794687
0.11699186 0.19163135 0.24668932
0.11706349 0.18752965 0.25093976
0.11676069 0.18902531 0.25030044
0.11637148 0.1888236 0.25112075
0.11391789 0.19046044 0.25078854
0.11850109 0.18895888 0.24753359
0.12577988 0.17563745 0.2279449
0.12599817 0.17903939 0.22792658
0.12472356 0.17500727 0.23117284
0.12495849 0.17864908 0.23124872
0.12625119 0.1823964 0.22764792
0.12640619 0.18595569 0.22757249
0.12715153 0.18600872 0.22484747
0.12523161 0.18205525 0.23101021
0.12543561 0.18558948 0.23084109
0.12404978 0.17904663 0.23407659
0.12424858 0.18172409 0.23402189
0.12436678 0.18514533 0.23419146
0.12705483 0.18857773 0.22546798
0.12647568 0.18904732 0.22759193
0.12710786 0.19136611 0.22525021
0.12629232 0.19208495 0.22783117
0.12560871 0.18904325 0.23048286
0.12511979 0.19245999 0.23128845
0.12563939 0.19560307 0.22786227
0.12422784 0.19854294 0.22705533
0.12451703 0.19536024 0.23099917
0.12454873 0.18896706 0.23384087
0.12426268 0.19196133 0.23417951
0.12077186 0.19869174 0.22698911
0.12327034 0.19906014 0.2271478
-0.059411231 0.06824778 0.2777749
-0.060095113 0.06936799 0.27784508
-0.062029094 0.071697257 0.27769393
-0.059155114 0.069296427 0.27828407
-0.056151751 0.06882342 0.27951232
-0.059327971 0.072292656 0.27925152
-0.056328747 0.071826711 0.28052083
-0.053138185 0.068376675 0.28070396
-0.052281611 0.06834279 0.28106189
-0.055049229 0.071712337 0.28104663
-0.052864294 0.069282122 0.28114435
-0.049356304 0.069043249 0.28249398
-0.052578755 0.072164983 0.2822912
-0.04971271 0.072092563 0.28345355
-0.059532024 0.075344481 0.2802574
-0.057890363 0.07550966 0.2811197
-0.055926997 0.073354952 0.28123516
-0.059627615 0.07757251 0.28101185
-0.060438804 0.079312637 0.28119159
-0.055980828 0.075663842 0.2820448
-0.059274312 0.079206601 0.28173941
-0.056230024 0.078725271 0.28301212
-0.053088911 0.075505674 0.2832706
-0.049957562 0.07437522 0.28414586
-0.050539788 0.07589633 0.28446066
-0.052730802 0.078390166 0.28441882
-0.053341363 0.07936006 0.28450227
-0.049158778 0.075555079 0.28487569
-0.052455045 0.079328738 0.28486511
-0.049352728 0.078941993 0.28598273
-0.046267357 0.06871976 0.28355712
-0.044078741 0.068897717 0.28438091
-0.042662766 0.067576528 0.28437102
-0.047498763 0.072458938 0.28441232
-0.046103857 0.070922092 0.28438917
-0.042569172 0.069080278 0.28494263
-0.045865115 0.072507136 0.28502813
-0.042736348 0.072220363 0.28599331
-0.039507963 0.068788171 0.28578323
-0.035822265 0.068773225 0.28683165
-0.03962956 0.071939886 0.2868785
-0.037072495 0.071948022 0.28763315
-0.03562231 0.071353272 0.28782275
-0.035858579 0.072280779 0.28808081
-0.045906387 0.075634219 0.28610867
-0.042938128 0.075351387 0.28705001
-0.046273567 0.078681104 0.28706402
-0.044443894 0.07886149 0.28779402
-0.042757202 0.077220216 0.28778726
-0.042589843 0.079060376 0.28848156
-0.040910561 0.075536199 0.28775606
-0.0394582 0.074091762 0.28768533
-0.039294429 0.075667985 0.28831732
-0.036309332 0.075210519 0.28901792
-0.039430436 0.078800991 0.28940502
-0.035904232 0.078372166 0.29026067
-0.062330667 0.0816743 0.28107142
-0.059395168 0.082220167 0.28274339
-0.05644073 0.0817362 0.28396252
-0.059563197 0.085290931 0.28374133
-0.058076579 0.085389711 0.28447914
-0.056130122 0.082806915 0.28447679
-0.055475947 0.081686541 0.28438157
-0.059666902 0.087318756 0.28437874
-0.060742028 0.089262284 0.2845194
-0.055765186 0.08531896 0.2855196
-0.05270401 0.082349882 0.2858206
-0.049627546 0.082023673 0.28698245
-0.053197782 0.085692294 0.28680527
-0.050970022 0.085656628 0.28775099
-0.04944627 0.083969973 0.28776005
-0.049260151 0.085735515 0.28845161
-0.059316903 0.089172743 0.28519985
-0.056256592 0.088675566 0.28648764
-0.059456185 0.092151947 0.28616557
-0.05649446 0.091700606 0.28743908
-0.052823745 0.088048652 0.28779203
-0.053637099 0.089317411 0.28789634
-0.055745009 0.091643907 0.28776854
-0.052518774 0.089284927 0.28837869
-0.049468242 0.08887507 0.28951558
-0.052740749 0.092293434 0.28936204
-0.049683977 0.091964543 0.29051366
-0.047682926 0.082193077 0.28777245
-0.046128578 0.080606788 0.2877807
-0.045938108 0.082385346 0.2885105
-0.04281028 0.08216399 0.28953588
-0.046154346 0.085489422 0.28956395
-0.043050107 0.085277937 0.29056883
-0.039689071 0.081978038 0.29046342
-0.037815262 0.082167834 0.29108888
-0.036042962 0.080732681 0.29103732
-0.041408978 0.085484207 0.29115969
-0.039510779 0.083646141 0.29112086
-0.046379901 0.088604644 0.29059029
-0.0449415 0.088800587 0.29118341
-0.042844195 0.086850531 0.29117647
-0.048092861 0.092142701 0.29117212
-0.046179712 0.090051062 0.29118308
-0.036001716 0.082292542 0.29161569
-0.03932815 0.085662827 0.29187307
-0.036281228 0.085376389 0.29263148
-0.042660125 0.088994436 0.29200584
-0.045999315 0.092324428 0.29202145
-0.042912833 0.092095479 0.29302099
-0.039531246 0.08878307 0.29291853
-0.036382433 0.088544749 0.29375559
-0.039759278 0.091913819 0.29398233
-0.03830852 0.092139103 0.29450887
-0.036156278 0.090247996 0.29444665
-0.035983056 0.092323549 0.29521716
-0.033069823 0.068626963 0.28750098
-0.0321621 0.068712153 0.28775498
-0.029798448 0.06696339 0.28763932
-0.033262145 0.069411084 0.28774291
-0.029324576 0.06877549 0.2884182
-0.032845784 0.072020248 0.28877178
-0.029084969 0.072434984 0.28979361
-0.026034454 0.069040343 0.28918639
-0.022728808 0.069033027 0.289763
-0.02560918 0.071908981 0.29030114
-0.022969371 0.071885996 0.2907472
-0.032658506 0.075630359 0.29012069
-0.029715583 0.075456254 0.29073766
-0.033332054 0.078865863 0.2910904
-0.032314576 0.07829798 0.29115027
-0.029951047 0.07649567 0.29106346
-0.028085506 0.075746387 0.29117003
-0.025986789 0.074367195 0.29108831
-0.023281297 0.072913885 0.29104909
-0.019041469 0.06881386 0.29021004
-0.015465565 0.068425208 0.29047337
-0.021148734 0.07218653 0.29111645
-0.018969303 0.071447536 0.29117015
-0.01608748 0.070469245 0.29115584
-0.012315417 0.068375938 0.29073983
-0.0096885497 0.06845738 0.29094496
-0.012889682 0.069770522 0.29119939
-0.010021406 0.06911736 0.29116029
-0.032519426 0.079091042 0.29137403
-0.029795125 0.078905627 0.29192314
-0.026049023 0.075725071 0.29156971
-0.023195434 0.075500436 0.29198229
-0.026244808 0.078697696 0.29257524
-0.022552086 0.078951024 0.29332834
-0.019306675 0.07248839 0.29148793
-0.016656619 0.072588809 0.29183197
-0.013423729 0.072519891 0.29211929
-0.009885597 0.072080024 0.2922163
-0.019556602 0.075396188 0.29248282
-0.016049044 0.07568904 0.29301593
-0.018895101 0.07855545 0.29373178
-0.016144047 0.078532204 0.29406783
-0.012381076 0.075570472 0.29331943
-0.0088602258 0.07519231 0.29340839
-0.013699133 0.078662269 0.29435584
-0.012239696 0.078443162 0.29440847
-0.0093923546 0.077803083 0.29436654
-0.0126181 0.079130575 0.29462993
-0.0099662216 0.079323344 0.29487982
-0.032986317 0.081987269 0.29226914
-0.029242758 0.082293056 0.29325035
-0.032520972 0.085402288 0.29361954
-0.02975332 0.085267641 0.29422596
-0.025854083 0.081779107 0.29376993
-0.023247898 0.082219206 0.29441437
-0.022242643 0.081903242 0.29446518
-0.028954614 0.085491881 0.29447743
-0.026133958 0.083770901 0.29445136
-0.022559302 0.082532428 0.29464659
-0.026413158 0.085916772 0.2951518
-0.023076216 0.085411958 0.29558602
-0.034069806 0.088600643 0.29437333
-0.03231661 0.087791063 0.29452568
-0.029954437 0.085983381 0.29443645
-0.032506507 0.088955373 0.29490793
-0.029571762 0.088729843 0.29551074
-0.03291795 0.092046939 0.29591811
-0.029080363 0.092130683 0.29683787
-0.026015915 0.089007787 0.29634717
-0.022289684 0.088767454 0.2969127
-0.026208298 0.091976427 0.29736167
-0.024181368 0.091967434 0.29772255
-0.022271737 0.091386348 0.29783985
-0.022651235 0.092391483 0.29812476
-0.019432811 0.080777019 0.29446024
-0.016312525 0.079757087 0.29448232
-0.019983357 0.082574993 0.29505554
-0.016801039 0.082514435 0.29543954
-0.019502889 0.085554361 0.29619321
-0.015870804 0.085678756 0.29668918
-0.013080198 0.082008988 0.2956371
-0.0092184627 0.082325637 0.29602697
-0.01215775 0.0852964 0.29689559
-0.0089308377 0.085409112 0.29715425
-0.018994434 0.088488139 0.29729861
-0.016386481 0.088496804 0.29762346
-0.019466113 0.090159573 0.29782572
-0.016702777 0.089089692 0.29779288
-0.015757194 0.088833958 0.29780644
-0.012676399 0.087902434 0.29776987
-0.0093606263 0.087326728 0.29780129
-0.019965004 0.092469871 0.29854882
-0.016406626 0.092056327 0.29885489
-0.013112363 0.089396924 0.298262
-0.009880526 0.089512184 0.29854524
-0.012833267 0.092323676 0.29931313
-0.009740361 0.092473224 0.29960483
-0.059584085 0.09513142 0.28714234
-0.058373138 0.095040768 0.2877166
-0.056219388 0.092474267 0.28783649
-0.060928371 0.098905817 0.28775075
-0.059215449 0.096746869 0.28789523
-0.055904802 0.095489569 0.28904074
-0.059303168 0.099017963 0.28863353
-0.056376554 0.098847158 0.28999633
-0.052978512 0.095342748 0.29032299
-0.051280089 0.095531613 0.2911115
-0.049491335 0.093665384 0.29115304
-0.053019017 0.097451754 0.2910268
-0.053993117 0.099297978 0.29120854
-0.05949609 0.10208695 0.28963542
-0.056072082 0.10167275 0.291098
-0.056732114 0.10270498 0.29117176
-0.05969508 0.10506134 0.29057932
-0.058762811 0.10503316 0.29103279
-0.061197054 0.10876094 0.29110092
-0.05938198 0.10632678 0.29116067
-0.049309965 0.095685586 0.29193497
-0.052617602 0.099195197 0.29178247
-0.049549423 0.098803177 0.29292053
-0.05580784 0.10264602 0.29157031
-0.055981737 0.10564467 0.29254189
-0.052824471 0.10220417 0.2927396
-0.049841166 0.10194249 0.29392192
-0.05297545 0.10519564 0.29375321
-0.051727254 0.10505986 0.29426295
-0.049948677 0.10306811 0.29428944
-0.049592834 0.10537738 0.29524246
-0.046268541 0.095372178 0.292992
-0.043268993 0.09517888 0.29399985
-0.046465885 0.098392285 0.29398748
-0.04552203 0.098306254 0.29431334
-0.043342516 0.09613093 0.29431689
-0.042882569 0.098772831 0.29539654
-0.042248677 0.09545406 0.29443485
-0.039642274 0.093387499 0.29452369
-0.039723203 0.095991276 0.29543209
-0.036203764 0.095541321 0.29630378
-0.039375622 0.099081233 0.2966449
-0.036466077 0.098695517 0.29734415
-0.048499618 0.10221105 0.29454085
-0.046210241 0.099441379 0.29444572
-0.045722038 0.10193882 0.29551539
-0.04267247 0.10232165 0.29673862
-0.046242382 0.10523416 0.29650214
-0.043191426 0.10561774 0.29770133
-0.042291526 0.10509253 0.29782426
-0.039800853 0.10199963 0.29753336
-0.0390619 0.10207888 0.29778793
-0.036590207 0.099946797 0.29774442
-0.039967757 0.10271851 0.29773831
-0.042461395 0.10573128 0.29799077
-0.036257911 0.10232297 0.29867226
-0.03954275 0.10534904 0.2987836
-0.035941243 0.10572041 0.29996586
-0.058889784 0.10881767 0.29228514
-0.056190077 0.10869598 0.2935513
-0.059737477 0.11221668 0.29309332
-0.056287847 0.11100484 0.29433987
-0.057128366 0.11272068 0.2945666
-0.055886928 0.11255202 0.29507199
-0.054353733 0.1088635 0.29443133
-0.052598618 0.10692687 0.29451236
-0.052552413 0.10903907 0.29530564
-0.049472868 0.10879859 0.29652059
-0.05285655 0.11209288 0.29628706
-0.049784683 0.11174657 0.29742786
-0.059979051 0.11521479 0.2940596
-0.059125088 0.1153826 0.29454571
-0.061658751 0.11841339 0.2943444
-0.059912439 0.11597393 0.29436848
-0.055892348 0.11555804 0.29616746
-0.059185613 0.11881297 0.29576305
-0.056209531 0.11862152 0.29712936
-0.053044919 0.1150865 0.29727048
-0.051989611 0.11503357 0.29770258
-0.049599744 0.1125977 0.29780248
-0.054708317 0.11867058 0.29781035
-0.052772336 0.11624228 0.29780146
-0.049411923 0.11570022 0.29898712
-0.05241356 0.11866029 0.29881331
-0.049563762 0.11918034 0.30019063
-0.046056435 0.10842346 0.29767719
-0.046566583 0.10937057 0.29782796
-0.048963949 0.1116941 0.29773617
-0.036545582 0.11945593 0.29156789
-0.035702709 0.11927986 0.29169399
-0.035198186 0.11889674 0.29159197
-0.045876492 0.10923684 0.29803625
-0.042894635 0.10866825 0.29888052
-0.046179529 0.11225585 0.29899701
-0.042412203 0.11204074 0.30025452
-0.039308384 0.108773 0.30007806
-0.036454912 0.10861336 0.3008571
-0.039272878 0.11162835 0.30111796
-0.040030185 0.11265467 0.30124328
-0.036707055 0.10935778 0.30105728
-0.039220169 0.11253693 0.3014572
-0.036238175 0.11209765 0.30218598
-0.046340261 0.11536288 0.30005845
-0.043742646 0.11534949 0.30098838
-0.04228222 0.11467206 0.30122983
-0.046296384 0.11791907 0.30099705
-0.046963036 0.11938768 0.30125713
-0.042424969 0.11574572 0.30157948
-0.045880746 0.11925241 0.30162424
-0.042746734 0.11888902 0.3026298
-0.039460666 0.11553491 0.30248731
-0.035812519 0.11544951 0.30352485
-0.03961486 0.11861918 0.30355263
-0.037034675 0.11862293 0.304295
-0.035669256 0.11808282 0.30448791
-0.03195592 0.11748596 0.29151928
-0.029622173 0.1166148 0.29143709
-0.029699218 0.11628874 0.29037696
-0.028121697 0.11643325 0.29158166
-0.033017319 0.095228113 0.29702413
-0.030411933 0.095280088 0.2976447
-0.028932622 0.094917886 0.2978355
-0.034928296 0.0990666 0.29787195
-0.032847412 0.097148046 0.29773772
-0.026260693 0.093349308 0.29781482
-0.029285967 0.095754623 0.29806226
-0.032640237 0.099051058 0.29845989
-0.029653307 0.098641984 0.29899856
-0.026610922 0.095835239 0.29862604
-0.023110917 0.095320933 0.29906514
-0.025873993 0.099016376 0.29989478
-0.022340709 0.098513618 0.30032995
-0.032582723 0.10225659 0.29960498
-0.029022306 0.10182136 0.30027062
-0.032943722 0.10540678 0.30064327
-0.03115941 0.10551887 0.30111954
-0.029350767 0.104203 0.30106696
-0.029365815 0.10568566 0.30157965
-0.026323389 0.10194388 0.3008624
-0.025248464 0.10237665 0.30122167
-0.022676246 0.10092905 0.3011207
-0.026674969 0.1027399 0.30108589
-0.022746017 0.1023791 0.30165678
-0.026529931 0.10549901 0.30210918
-0.022900464 0.10530677 0.30270272
-0.019399432 0.09561789 0.29973334
-0.015638618 0.095508762 0.30015931
-0.019630879 0.098549455 0.30074993
-0.017744133 0.098862685 0.30111361
-0.015631238 0.098253533 0.30115071
-0.015968181 0.099178478 0.30144206
-0.012150536 0.095231131 0.30039749
-0.0088779284 0.095123544 0.3005892
-0.012750707 0.097357489 0.30112189
-0.0094705196 0.096820451 0.30117425
-0.013348804 0.099246033 0.30173802
-0.010211261 0.099205866 0.301976
-0.019957224 0.099600777 0.3010627
-0.019891664 0.10216729 0.30202031
-0.016245823 0.10205312 0.30245927
-0.019221189 0.1056302 0.30337101
-0.015474032 0.10519537 0.30366221
-0.012822494 0.1021323 0.3028397
-0.0094479444 0.10213427 0.30308631
-0.012063113 0.10507454 0.30392727
-0.0089092376 0.10504184 0.3041195
-0.03272276 0.1192266 0.29246524
-0.029458757 0.1186769 0.29288653
-0.026813071 0.1186983 0.29356727
-0.035622656 0.108832 0.30115923
-0.032916989 0.10700879 0.30119348
-0.033060588 0.10930882 0.30201659
-0.029642673 0.10883263 0.30266488
-0.032576103 0.11245158 0.30328169
-0.029614573 0.11198439 0.30379218
-0.02573478 0.10872728 0.30342332
-0.0224921 0.10839452 0.30386344
-0.026930651 0.11195563 0.30431044
-0.025565362 0.11165367 0.30447987
-0.022793416 0.11017364 0.304454
-0.033025011 0.11536162 0.3041949
-0.031920701 0.115757 0.3046
-0.029465713 0.11387312 0.30446163
-0.033277132 0.11620367 0.30443808
-0.019850738 0.1088842 0.30442697
-0.018904945 0.10860755 0.30445638
-0.01608674 0.10764437 0.30443439
-0.012803853 0.10696065 0.30450407
-0.009514221 0.10642598 0.30455422
-0.008583731 0.06883011 0.29112616
-0.0055195135 0.068214871 0.29100493
-0.0025119381 0.067775056 0.29087493
0.00046049664 0.068243526 0.2910074
0.0035441427 0.068829536 0.29111835
0.0043800334 0.068347573 0.29090318
0.0045250827 0.069043569 0.29114592
0.0069687567 0.068556897 0.29081368
0.0098222867 0.068533443 0.2905474
0.0072850743 0.069725253 0.29121137
0.010486713 0.07039506 0.29116777
0.013373362 0.068810441 0.29024765
0.017127752 0.068947516 0.28975809
0.013371139 0.071369231 0.29118302
0.015684811 0.07217627 0.29112959
0.017372075 0.07187546 0.290773
0.01768812 0.072854564 0.29106149
-0.0058331639 0.069189742 0.291354
-0.0026672257 0.069396742 0.29145867
-0.006153692 0.072066545 0.29237095
-0.0028385133 0.072681718 0.29264662
0.00079191517 0.06942299 0.29142761
0.00043322259 0.072334833 0.29248095
0.004079428 0.071981482 0.29221451
-0.0055236989 0.075205438 0.29354104
-0.0028038532 0.075274244 0.29361057
-0.0060445941 0.077431411 0.29436758
-0.0028038532 0.077010527 0.29426825
-0.006690097 0.079286933 0.29501331
-0.0027621868 0.079270184 0.29507959
-0.00011866818 0.075240158 0.29357004
0.0031874974 0.075188823 0.29344279
0.00043688741 0.077384077 0.29437441
0.0038081156 0.077712558 0.29437992
0.0011776283 0.079292066 0.29504517
0.0044050822 0.079291977 0.29492369
0.0077954386 0.07247518 0.29214272
0.011070689 0.072578713 0.29187372
0.013709377 0.072477102 0.29152703
0.0067760856 0.075561978 0.29336724
0.010483869 0.075699762 0.29307976
0.0066880672 0.078359574 0.29444209
0.0087709669 0.078860991 0.29443768
0.010687513 0.078520447 0.29412517
0.0070248144 0.079203896 0.29472661
0.013932926 0.075349174 0.29252598
0.017549941 0.075495414 0.29203343
0.013351978 0.078470379 0.29377156
0.016730504 0.078776255 0.29337576
-0.0058197267 0.082045987 0.29607055
-0.0028012078 0.082545608 0.29630443
-0.00576984 0.085003428 0.29713294
-0.0028832185 0.085132137 0.29723313
0.00048979744 0.082312196 0.29618937
0.0039707543 0.082174584 0.2960192
-6.5758119e-005 0.085193381 0.2972348
0.0034161014 0.085288666 0.29716274
-0.006002266 0.086908303 0.29779753
-0.0028170808 0.086444087 0.29769069
0.00047392442 0.086892694 0.29782581
0.0036564639 0.087347165 0.29788393
-0.0062694619 0.089255095 0.29862618
-0.0025680258 0.088957168 0.29858774
-0.0066424781 0.092259996 0.29967922
-0.0030079351 0.09219788 0.29973733
0.0010665171 0.089181274 0.2986314
0.0044686338 0.089295335 0.29853499
0.00025963873 0.091833368 0.29959098
0.0036088452 0.092253722 0.29962793
0.011025368 0.079444341 0.29441875
0.0073054018 0.081997775 0.29573426
0.010968821 0.082136899 0.29542059
0.0067073479 0.084958404 0.29685098
0.010065124 0.085421629 0.29671621
0.013799094 0.080479212 0.29444245
0.016540876 0.081650279 0.29447982
0.014045951 0.082357317 0.29512084
0.016743092 0.082705215 0.29484057
0.013926335 0.085490398 0.29627931
0.01767206 0.085510686 0.29571077
0.0068472666 0.087420575 0.29770949
0.0099274898 0.088340841 0.29776651
0.011604853 0.088621944 0.2976819
0.013936739 0.088483699 0.29734752
0.016713811 0.088540092 0.29695961
0.014031998 0.089791171 0.29779977
0.017024066 0.091010377 0.29779181
0.0077037844 0.089233644 0.29829249
0.010353846 0.089113474 0.29800126
0.0072009698 0.09217982 0.29937056
0.010838333 0.091974899 0.29895222
0.014428033 0.092453621 0.29867372
0.017177165 0.092453651 0.29827088
0.02395431 0.067129493 0.28778189
0.020776346 0.068696432 0.28902557
0.024118803 0.069277979 0.2885474
0.020062143 0.071849674 0.29029977
0.023554333 0.072431423 0.28981951
0.026656555 0.068834804 0.2878049
0.027469641 0.068615235 0.28752178
0.030222451 0.068766072 0.286843
0.027664235 0.0693601 0.28775111
0.030024623 0.071279734 0.28783253
0.027263494 0.072085679 0.28883648
0.030216293 0.072323114 0.28815019
0.020395372 0.07429596 0.29110345
0.022630194 0.075764075 0.29120743
0.024060752 0.075382568 0.29078451
0.024315294 0.076335676 0.29108247
0.026852297 0.075446889 0.29016778
0.030605972 0.075405575 0.28917745
0.026710978 0.078028157 0.29114649
0.028165912 0.078607962 0.29097652
0.030724205 0.078581065 0.29031035
0.036734834 0.067869298 0.28457302
0.038091362 0.068885364 0.28449824
0.040331721 0.068381436 0.28352988
0.043743398 0.068993412 0.28246623
0.040370822 0.070825867 0.28440204
0.041796673 0.072228096 0.28437975
0.043969948 0.07212124 0.28352183
0.043802775 0.07433857 0.28438693
0.033863053 0.068801813 0.28579798
0.03680446 0.06912107 0.28500408
0.031536628 0.071970232 0.28766027
0.034033004 0.071933798 0.28689826
0.037129328 0.072206751 0.28600332
0.040280752 0.07243032 0.28500894
0.033832159 0.074039541 0.28771889
0.035423193 0.075522915 0.28777212
0.037393656 0.075324908 0.28706977
0.037198707 0.077072881 0.28779343
0.033661135 0.075705767 0.28840005
0.033871163 0.078827716 0.28949097
0.037008945 0.079033554 0.28856167
0.040497761 0.075537525 0.2860541
0.043615635 0.075770877 0.28498074
0.039051484 0.078832842 0.28780565
0.040737208 0.078643747 0.28712085
0.043828495 0.078906626 0.28604025
0.030544385 0.080544271 0.29104963
0.032436091 0.082165435 0.29113832
0.034115959 0.081949219 0.290555
0.03724084 0.082129769 0.28962886
0.033904865 0.083453767 0.29117277
0.036079012 0.085456312 0.2911976
0.037477568 0.085243173 0.29067498
0.040545035 0.080392562 0.28781235
0.042305242 0.082163885 0.28781033
0.044058952 0.081985667 0.28709254
0.043872315 0.083689623 0.28780228
0.040362518 0.082349896 0.28861523
0.040617187 0.085448749 0.28966391
0.043690905 0.085691802 0.28859007
0.037370674 0.086645052 0.29119849
0.039961107 0.088794269 0.29109624
0.040971842 0.088524207 0.29063115
0.043984737 0.088753559 0.28959113
0.041058194 0.08953172 0.29096845
0.043064725 0.091657422 0.29096016
0.044165071 0.091754064 0.29058558
0.020414304 0.075773619 0.29164562
0.020545142 0.078890011 0.29274505
0.024192151 0.078917041 0.29201466
0.026972223 0.078997225 0.29142049
0.018230869 0.082028598 0.29434991
0.020674994 0.081987776 0.2938762
0.023709321 0.082308665 0.29335618
0.020713609 0.083527364 0.29444948
0.02332186 0.085132949 0.29449823
0.021013791 0.08588139 0.29523659
0.023624174 0.085844927 0.29469132
0.027421385 0.081891358 0.29234037
0.030383147 0.082297511 0.29173824
0.024377188 0.085541919 0.29441398
0.026976451 0.085031241 0.29360613
0.030547768 0.085449114 0.29282534
0.020307379 0.089095138 0.29653555
0.024048992 0.08871568 0.29563013
0.019448971 0.092391245 0.29786286
0.020747831 0.092036985 0.29749763
0.023530455 0.092102446 0.29695931
0.027133869 0.087318271 0.29439113
0.029177615 0.089025348 0.29448882
0.030922148 0.08862152 0.29388472
0.031012936 0.08980687 0.29430151
0.02705255 0.089031763 0.29504445
0.027189435 0.092129201 0.29612035
0.030646874 0.09209159 0.29519871
0.033715785 0.085660823 0.29200205
0.034004893 0.088769555 0.29302505
0.037457515 0.08931417 0.29211295
0.033196609 0.091664076 0.29432762
0.034080241 0.091843665 0.29411802
0.037080649 0.09240713 0.29334947
0.04066987 0.092096262 0.29199234
0.0014696849 0.11797651 0.29154202
0.0035313794 0.11852327 0.29155999
0.0034920254 0.11861398 0.29131562
0.0015312227 0.11860911 0.29020441
0.0039381343 0.11869967 0.2917619
-0.005621314 0.095079675 0.30071232
-0.0025213137 0.095182225 0.30079952
-0.0061001498 0.096503675 0.3012155
-0.003007028 0.096232302 0.3011798
-0.0067627588 0.099183537 0.30214974
-0.0028403706 0.099220574 0.30224749
0.0003548768 0.094727375 0.30061245
0.0033231308 0.095255487 0.30070534
0.00032313075 0.09629821 0.3011806
0.0038601677 0.096700169 0.30120796
0.0011368536 0.099150844 0.30218688
0.0046035545 0.099175729 0.30205458
-0.006022315 0.10240453 0.30333301
-0.0027249311 0.1027213 0.30350944
-0.0062920242 0.1051312 0.30426621
-0.0043650088 0.10564633 0.30449346
-0.0026080448 0.10530663 0.30440462
