# .PCD v0.7 - Point Cloud Data file format
VERSION 0.7
FIELDS x y z normal_x normal_y normal_z curvature
SIZE 4 4 4 4 4 4 4
TYPE F F F F F F F
COUNT 1 1 1 1 1 1 1
WIDTH 607
HEIGHT 1
VIEWPOINT 0 0 0 1 0 0 0
POINTS 607
DATA ascii
0.2188561 0.026361795 0.21910559 -0.4312436 -0.12615977 -0.89337146 0.00014285758
0.19327411 0.0076117963 0.23056567 -0.26013085 -0.10697287 -0.95962948 9.5979587e-005
0.16754198 -0.0054129101 0.236035 -0.2184106 0.14260048 -0.96538174 0.00034091392
0.15955105 -0.0028048707 0.23802149 -0.28540805 0.25092322 -0.92497551 0.0069999071
0.15611303 -0.0009076047 0.23961805 -0.32993534 0.3406541 -0.88039625 0.002937445
0.15245618 0.0018472986 0.24252884 -0.3766025 0.43261632 -0.81915426 0.004675719
0.14527175 -0.00014294604 0.24455203 -0.26403672 0.56197566 -0.78388005 0.0043919454
0.13597661 0.0038167823 0.25094104 -0.20298111 0.65074074 -0.73166597 0.0014224862
0.13217382 0.010084053 0.25837731 -0.076551266 0.76394749 -0.64072162 0.0039187609
0.12965277 0.015626561 0.26574224 -0.15919188 0.75732267 -0.63334066 0.0049158293
0.12788439 0.021149237 0.27407849 -0.11436602 0.79577821 -0.5946911 0.0055904766
0.29883614 0.053953487 0.097645834 nan nan nan nan
0.29729289 0.06110489 0.088317804 -0.94424778 -0.30753165 -0.11756006 0
0.28598464 0.082903042 0.054089472 -0.84479499 -0.51819289 0.133407 0
0.27989665 0.088650465 0.041730091 -0.84560025 -0.49815723 0.19183223 0
0.24199204 0.1013528 -0.010771913 nan nan nan nan
0.22803034 0.10350685 -0.021572269 nan nan nan nan
0.20366518 0.0993554 -0.040394664 -0.32121888 -0.59982073 0.7328257 0.00023507516
0.18455106 0.12935671 -0.070797473 -0.13277189 -0.99064767 0.031445742 0.062383588
0.18788439 0.13092059 -0.074130811 0.055257905 -0.98917341 0.13595018 0.067366414
0.19859995 0.13551943 -0.082448348 -0.82308382 0.48160866 -0.3009752 0.020396199
0.19121772 0.13084705 -0.077464141 0.2688385 -0.94090664 0.20596242 0.064694047
0.19441418 0.13232593 -0.081078485 0.5286144 -0.77009892 0.35709152 0.063950829
0.19415861 0.15852882 -0.077464141 -0.62151694 -0.77723843 0.098066494 0.009341605
0.19743727 0.15491129 -0.079130806 -0.78861219 -0.61371583 0.037995327 0.0088894013
0.19916987 0.15219513 -0.079130806 -0.89764822 -0.44057059 -0.011191305 0.012378054
0.18788439 0.16090328 -0.079130806 -0.17450592 -0.9618125 0.21086581 0.023070449
0.20039375 0.1488618 -0.082464144 -0.93286115 -0.35530666 -0.059390072 0.014008219
0.20183606 0.14219514 -0.088305108 -0.9907037 0.023406766 -0.13400903 0.010269777
0.18065952 0.15629336 -0.086630806 0.51328975 -0.79950529 0.3119694 0.009499752
0.17592373 0.14552847 -0.090797476 -0.94068742 0.19596542 -0.27695632 0.016675659
0.17792593 0.1486724 -0.096000388 -0.82674682 0.49831164 -0.26110366 0.013362299
0.17538439 0.092349902 -0.055015691 -0.20320858 -0.51082307 0.83532387 0.00045630723
0.11913551 0.087001383 -0.057529017 0.19954167 -0.46600816 0.86198586 0.00028062295
0.13077007 0.083713725 -0.061239701 0.20018385 -0.4607608 0.86465365 1.0801264e-005
0.15330599 0.080154233 -0.064016819 -0.13258396 -0.38484845 0.91340744 0
0.13907242 0.078726158 -0.064311281 nan nan nan nan
0.022838948 0.021778462 0.17493983 0.77916706 -0.075565636 -0.62224478 0.00018656613
0.082755283 0.0075941887 0.22337067 nan nan nan nan
0.093174949 0.0076117963 0.22925822 0.58289558 0.13712038 -0.80089378 0.00053290493
0.098054744 0.0069739707 0.23241799 0.65570849 0.21559967 -0.72357655 0.0044893348
0.10150465 0.007026019 0.23562592 0.66018945 0.27463484 -0.69908911 0.0075297104
0.10393579 0.013915809 0.24252006 0.787853 0.37302524 -0.49004066 0.0026740571
0.10682572 0.031361796 0.26670253 -0.93187541 -0.27420402 0.23752953 0.0094346199
0.10659175 0.035528462 0.2708692 -0.97099596 -0.10183708 0.216324 0.012905931
0.11121773 0.04219513 0.27694461 0.35321459 -0.54260135 -0.76211762 0.04564565
0.1178844 0.045528464 0.27564842 -0.32260492 -0.31368455 -0.89304429 0.10930774
0.1178844 0.048861798 0.27438846 -0.15353473 -0.59876513 -0.78607082 0.13855483
0.12788439 0.02823375 0.28312561 -0.19193377 0.1314297 -0.97256756 0.11245842
0.12455106 0.032438945 0.28636283 -0.048871316 -0.35272196 -0.9344511 0.06288673
0.12121773 0.033890042 0.28253585 -0.09593565 -0.60464162 -0.79069901 0.13488916
0.11950268 0.035528462 0.28253585 -0.1079573 -0.67305654 -0.73166937 0.083013617
0.1178844 0.039434358 0.27958411 -0.20855613 -0.5678035 -0.79630619 0.05926834
0.1178844 0.035886213 0.2829867 -0.056016274 -0.63238567 -0.77262568 0.064711183
0.11903863 0.038861796 0.27920252 -0.22728507 -0.63394892 -0.73922265 0.045562271
0.12084239 0.038537972 0.27586919 -0.1571878 -0.6257723 -0.76400334 0.091193892
0.12455106 0.035528462 0.27455989 0.066408865 -0.73557234 -0.67418343 0.11777806
0.12116464 0.042169031 0.27252132 -0.33225825 -0.44984514 -0.82900167 0.094757102
0.12121773 0.038861796 0.2748341 -0.17310768 -0.62703776 -0.75951123 0.087564796
0.12121773 0.048861798 0.27459258 -0.14976358 -0.77642065 -0.61216158 0.21761116
0.12283918 0.048861798 0.27253586 -0.32873556 -0.72446972 -0.6058684 0.21660671
0.12121773 0.045528464 0.27090567 -0.393462 -0.34439039 -0.85239834 0.146292
0.0045419852 0.0051669413 0.14306086 0.92112213 0.13719673 -0.36429527 0.00014457859
-0.0025876039 0.015111796 0.1248194 0.96551782 0.050883699 -0.25531584 0.00014711492
-0.0047661122 0.0472413 0.09751109 -0.9326725 0.25578758 -0.25435156 0
0.0067423829 0.077116929 0.054225758 0.94723719 -0.3039909 0.10164331 0
0.013552623 0.085516818 0.043550752 0.72163081 -0.57166594 0.39044473 0
0.055485796 0.10039756 -0.013123707 0.29318869 -0.58078468 0.75942707 0
0.062776208 0.098884404 -0.021447379 nan nan nan nan
0.077538967 0.096219771 -0.034680486 0.41201231 -0.52500486 0.74472529 0
0.28300923 0.025410218 0.16016871 nan nan nan nan
0.27288532 0.030699698 0.17356825 -0.75466555 -0.25151685 -0.60598612 9.5623269e-005
0.21332124 0.018861797 0.22262976 -0.41128829 -0.073562093 -0.90853214 0.00041645611
0.1995098 0.010528463 0.22855276 -0.3374846 -0.019991342 -0.94111878 0.00016126865
0.16768053 -0.013810007 0.23441152 -0.13824055 0.18588252 -0.97279865 3.9022707e-005
0.12788439 0.0091264248 0.25767791 0.0090361275 0.75425571 -0.65651864 0.0063672615
0.12455106 0.021426238 0.27452591 0.051627703 0.80873424 -0.58590394 0.0043068738
0.28879124 0.020360963 0.15088092 -0.88370317 -0.028821062 -0.46715957 0
0.29876602 0.028010903 0.12416219 nan nan nan nan
0.30055743 0.043957423 0.10428773 -0.96513057 -0.17230557 -0.19706272 0
0.27025259 0.09413176 0.023850122 nan nan nan nan
0.26399145 0.098100841 0.016733948 -0.76330328 -0.55267793 0.33453718 0
0.22169577 0.09978845 -0.029820871 -0.53195852 -0.84470391 0.059122298 0
0.18949112 0.093896657 -0.049818359 -0.26258907 -0.53120542 0.80552334 0.00018649724
0.18121773 0.13426454 -0.074130811 -0.23500967 -0.96992445 0.063379712 0.04932873
0.18257171 0.13219513 -0.074130811 -0.2674039 -0.96233797 0.048997398 0.041646019
0.18455106 0.13044918 -0.074130811 -0.25474092 -0.95695597 0.13907689 0.036993466
0.18788439 0.13147111 -0.077464141 0.019172203 -0.9894706 0.14345884 0.059743032
0.19121772 0.13053429 -0.080797479 0.30104667 -0.89455867 0.33035681 0.064887904
0.18445437 0.15853573 -0.085865505 0.31844702 -0.89504927 0.31221521 0.015733281
0.1945971 0.15688694 -0.083714142 -0.64679116 -0.74892992 0.14410174 0.014315833
0.19136009 0.15935358 -0.082587533 -0.35642606 -0.91182697 0.20379417 0.019849913
0.18168391 0.15538777 -0.090527743 0.4206526 -0.83535314 0.35388762 0.015286196
0.17572828 0.14219514 -0.092464142 -0.98368728 0.094815627 -0.15287001 0.0057878951
0.17539485 0.14219514 -0.087464139 -0.98440814 0.010056028 -0.17561182 0.0024821723
0.17652135 0.14552847 -0.095797472 -0.94175857 0.25903919 -0.21445143 0.014929282
0.18111846 0.15237877 -0.09564922 0.65300387 -0.66043627 0.37068841 0.016843291
0.17276944 0.086927503 -0.058629457 -0.15514266 -0.47134575 0.86819577 0.00016633843
0.11132751 0.090382792 -0.053700753 0.2363133 -0.49923104 0.83362126 0.00044234085
0.015629278 0.01719513 0.16523321 0.83617657 -0.031625878 -0.54754764 0.00028660853
0.030790113 0.018861797 0.1845891 0.76953942 -0.098879755 -0.63089776 2.6496415e-005
0.061734252 0.016361795 0.21121298 nan nan nan nan
0.07368575 0.010528463 0.21845616 0.52251321 -0.029195553 -0.85213119 1.7123395e-005
0.10684827 0.020608831 0.25411412 0.81351346 0.42723781 -0.39454243 0.0026003814
0.10876465 0.023886118 0.2625089 -0.80745685 -0.46414885 0.3641144 0.0077679008
0.10755407 0.038861796 0.27652475 0.72381872 -0.29167208 -0.62531096 0.071465552
0.11121773 0.039382923 0.27978498 0.31941646 -0.47694251 -0.81883997 0.050680026
0.10933011 0.038861796 0.27920252 0.50873274 -0.41282424 -0.75549138 0.078342639
0.115152 0.04219513 0.27601826 0.076157272 -0.52004707 -0.8507356 0.071546935
0.1178844 0.041987129 0.27556321 -0.27008924 -0.44716883 -0.85269678 0.072212368
0.11889455 0.048861798 0.27586919 0.0019488203 -0.82377374 -0.56691533 0.2198122
0.12008608 0.045528464 0.27253586 -0.29163107 -0.42214248 -0.85833961 0.1207591
0.11872587 0.048861798 0.27253586 -0.17828047 -0.61815721 -0.76557016 0.15032518
0.12455106 0.029776709 0.28520375 -0.073428325 -0.37076128 -0.92582089 0.066371478
0.12455106 0.02711199 0.28253585 0.031967614 0.49705279 -0.86713123 0.097688861
0.12210765 0.032195129 0.28533289 -0.071400926 -0.50900745 -0.8577956 0.085660443
0.11427338 0.038814772 0.27916601 0.11379172 -0.51523054 -0.84946394 0.071713179
0.11402031 0.035549272 0.28254896 0.37217438 -0.19582628 -0.90726966 0.07629507
0.12340211 0.047385965 0.27069393 -0.53151351 -0.41032672 -0.74102998 0.16246799
0.12121773 0.048861798 0.27118772 -0.33601782 -0.63503027 -0.69557798 0.15678635
0.12373793 0.048861798 0.26920253 -0.50172764 -0.54983461 -0.6677959 0.13112466
0.12455106 0.048861798 0.270237 -0.62703156 -0.49125412 -0.60456657 0.14182393
0.0010870645 0.001748231 0.13231632 0.93899614 0.16500828 -0.30175892 0.00021154269
-0.0011722142 0.0088198418 0.12810333 0.95243371 0.10526904 -0.28598693 0.00015945049
-0.0049226913 0.028149979 0.11506604 0.96969897 -0.082699619 -0.22987971 0.00037117768
-0.0055740084 0.035846729 0.10738168 0.84987098 -0.065477304 -0.52290738 0
0.0018799581 0.06969548 0.067119189 nan nan nan nan
0.068853766 0.096009918 -0.028816115 0.49554786 -0.58896691 0.63839668 0
0.24643451 0.023226783 0.20193127 nan nan nan nan
0.23386945 0.017594378 0.21146156 nan nan nan nan
0.22334048 0.020528464 0.21747905 -0.47937173 -0.12557916 -0.86858088 0
0.15311028 -0.0043590157 0.23923263 -0.26016292 0.40474233 -0.87664068 0.0015393187
0.14879277 -0.0028303792 0.2413532 -0.29641908 0.43058836 -0.85248423 0.0022436834
0.13121773 0.0034740544 0.25127485 -0.0034046031 0.72702396 -0.68660367 0.0015596874
0.12474458 0.014111814 0.26385865 0.10006192 0.74708253 -0.65715694 0.0025211377
0.12117055 0.020615973 0.27247092 0.26276648 0.79878449 -0.54119968 0.0071530291
0.29405794 0.016778463 0.13973337 nan nan nan nan
0.292083 0.073818184 0.065767221 -0.90524995 -0.42209569 0.048555527 0.00024749184
0.25914139 0.09738759 0.007110944 -0.6327427 -0.58046079 0.51254463 8.8213465e-006
0.21467353 0.096833609 -0.03673714 -0.34910962 -0.61646456 0.7057578 1.588343e-005
0.20711374 0.094741814 -0.042304046 -0.36798477 -0.54223466 0.75536001 0.00014443119
0.19889393 0.093768679 -0.046615742 -0.3104285 -0.54019886 0.78218877 0.00020663159
0.18455106 0.13229279 -0.077633247 -0.22516254 -0.97023648 0.089123875 0.051744666
0.18121773 0.13332482 -0.077464141 -0.46724692 -0.88040543 0.081034951 0.044746563
0.18788439 0.13158303 -0.080797479 -0.070284992 -0.95813292 0.27756336 0.046365902
0.19770099 0.13293014 -0.084440373 -0.71269888 0.57458758 -0.4023796 0.021030637
0.19084284 0.1285989 -0.083864383 0.13729358 -0.96117759 0.23934937 0.054258171
0.19455107 0.1288618 -0.082708947 0.36264524 -0.87201136 0.32876241 0.065740548
0.20191054 0.13624269 -0.092366509 -0.94545263 0.21006136 -0.24898498 0.005515324
0.19828948 0.15268965 -0.085797474 -0.79606146 -0.5967322 0.10097899 0.013368601
0.18788439 0.15928504 -0.085753068 0.065704614 -0.95712054 0.28214028 0.022421356
0.20158328 0.14580603 -0.089130811 -0.94779617 -0.31887659 0.00018765841 0.0075176358
0.20089521 0.14793044 -0.089130811 -0.94779617 -0.31887659 0.00018765841 0.0075176358
0.17599168 0.13719513 -0.090797476 -0.9916842 -0.078367539 -0.10208389 0.0066335918
0.17460002 0.13886179 -0.087464139 -0.99002862 -0.094395489 -0.10456017 0.0077234772
0.16621773 0.082877666 -0.061757438 -0.1126093 -0.44186211 0.88998711 0.00021962365
0.096562952 0.091285974 -0.047983304 -0.042575803 -0.70036364 0.71251529 0
0.012899277 0.010528463 0.16081141 0.86925119 0.031343382 -0.49337605 0.00039347657
0.0266017 0.015528463 0.18000546 0.76932675 -0.013847717 -0.63870549 0.00021202851
0.041153766 0.015111796 0.19513343 0.4945595 0.047218602 -0.8678602 0
0.087858118 -0.00027865719 0.22551829 0.46380928 0.059430737 -0.88393939 0
0.09628889 0.00068480708 0.23000804 0.50691903 0.18792231 -0.84125996 0.0031983326
0.10097944 0.0007506581 0.23271698 0.54944736 0.30399805 -0.77826262 0.003088004
0.10436538 0.0085166786 0.23971614 0.68610489 0.34969831 -0.63794291 0.0016663843
0.10765695 0.014812121 0.24971817 0.69620001 0.54014236 -0.47281265 0.0030045167
0.10808713 0.030777257 0.27046195 -0.87460899 -0.41118029 0.25688523 0.0082047684
0.10868805 0.035516739 0.27754059 0.84369087 0.017558437 -0.53654206 0.071481645
0.12113226 0.04891552 0.27937508 0.2801097 -0.49191821 -0.82435125 0.22765307
0.12121773 0.028054362 0.28324047 0.28866613 0.18109345 -0.94014734 0.10343232
0.1178844 0.032195129 0.28337827 0.30919164 -0.051032025 -0.94962955 0.10007579
0.11121773 0.035528462 0.28218174 0.35368487 -0.31342921 -0.88128835 0.059356809
0.12455106 0.048861798 0.26842237 -0.51906514 -0.37860695 -0.76630813 0.13667017
-0.004699992 0.02094513 0.11722624 0.97306842 0.0076389425 -0.23039016 0.0003020071
-0.0062873322 0.040503442 0.096314929 0.97574359 -0.20837469 -0.067114055 0
0.023330878 0.08874695 0.020929012 0.67429793 -0.37787789 0.63445306 0
0.032795582 0.092084669 0.0072559151 nan nan nan nan
0.046788756 0.095699824 -0.0083969738 0.64139259 -0.56004375 0.5243724 0.00033697792
0.27823076 0.021363361 0.16825597 -0.80260009 -0.05300381 -0.59415805 0
0.27366099 0.020106606 0.17454374 -0.80131304 -0.060162175 -0.59521252 0
0.23833278 0.022555918 0.20800731 -0.50740039 -0.1356694 -0.85096335 0
0.20875704 0.010528463 0.22495306 -0.3753188 -0.03731421 -0.92614442 8.6765671e-005
0.18748434 -0.0047447109 0.23161194 -0.18392625 -0.18867652 -0.96466172 0
0.14132755 -0.0025887422 0.24403504 -0.19107109 0.5504474 -0.81271118 0.0018522677
0.12433472 0.0072002425 0.25477949 0.14235902 0.74522942 -0.6514346 0.0039147572
0.12061572 0.01206598 0.25938451 0.28099138 0.7741617 -0.56720155 0.0029425831
0.11786219 0.017594526 0.26567581 0.41789088 0.74968725 -0.51316291 0.0040059281
0.11838125 0.025429996 0.27805629 0.38469803 0.68862128 -0.61466104 0.025883924
0.30096704 0.033279993 0.11276693 nan nan nan nan
0.30156305 0.045461189 0.094140016 -0.95513356 -0.294909 -0.02736121 8.9043213e-005
0.29979798 0.053875715 0.087090746 nan nan nan nan
0.29528436 0.067230895 0.070889525 -0.92504042 -0.37807059 0.036915831 0.00018047172
0.27759776 0.086911604 0.030583795 -0.85218108 -0.49553806 0.1680163 0
0.25296757 0.098183647 -0.0010286227 -0.6284436 -0.5911538 0.50556481 2.4658904e-005
0.22887784 0.095356479 -0.02848026 -0.49217874 -0.55104727 0.67387468 0.00011516442
0.19949572 0.087163851 -0.050461464 -0.40483952 -0.48796329 0.77330261 0
0.18455106 0.12999283 -0.080797479 -0.26249748 -0.95312464 0.15049438 0.038442846
0.18788439 0.12984432 -0.084130809 0.044971894 -0.90076512 0.43197197 0.026217967
0.2004167 0.1338618 -0.089130811 -0.88424754 0.32944626 -0.33101568 0.0061457814
0.19496363 0.12752928 -0.084745608 0.47764984 -0.75163597 0.45485613 0.057994131
0.19121772 0.15762855 -0.089130811 -0.24429932 -0.91249561 0.32813054 0.036150448
0.20034258 0.14832112 -0.093297474 -0.8748005 -0.46321201 0.14198115 0.01850583
0.18457916 0.1546817 -0.095789708 0.36270475 -0.86145192 0.35545161 0.01276372
0.17619726 0.13719513 -0.096630812 -0.99456823 -0.072806649 -0.074385442 0.0056740707
0.17649065 0.14052846 -0.10079747 -0.96269321 0.20500787 -0.17661709 0.014175856
0.17854652 0.14556523 -0.10251894 -0.76115698 0.54718065 -0.34818596 0.0097921919
0.18130434 0.14897427 -0.10225922 0.69041985 -0.62195343 0.36945152 0.011679906
0.17871773 0.084479049 -0.058617782 -0.22688587 -0.46332559 0.85665178 0.00014347065
0.10027673 0.086982064 -0.052003916 0.29572925 -0.4675222 0.83304685 0.00018207743
0.12572093 0.078867748 -0.062653214 0.16147181 -0.38563654 0.90841144 0.00015881239
0.1528707 0.073814496 -0.066751875 -0.014085187 -0.36445159 0.93111575 0.00020147036
0.14455105 0.073758014 -0.066692352 0.038921695 -0.34740943 0.9369055 0.00029666995
0.0077707181 0.0031945084 0.14987384 0.81822586 -0.31745535 -0.47929999 0
0.017058061 0.010528463 0.16738392 0.82552791 0.037058223 -0.56314331 0.00020433018
0.051698457 0.01344513 0.2041198 0.55390102 -0.040453978 -0.83159924 1.8772605e-005
0.10483247 0.0037778481 0.237238 0.60882092 0.42925856 -0.6671387 0.003022531
0.10784452 0.0073804506 0.24280739 0.6217801 0.50259471 -0.60065639 0.0043735257
0.11013521 0.011686516 0.24969278 0.66577339 0.53568536 -0.51941019 0.0061385697
0.11115547 0.017158525 0.25759661 0.62714648 0.61506581 -0.4778927 0.0032964507
0.10927194 0.032195129 0.27586919 0.82515174 0.33073798 -0.45797047 0.03044321
0.11121719 0.032194365 0.27920452 0.60212445 0.30323622 -0.73857558 0.068506531
0.12121773 0.051984526 0.27586919 -0.10352251 -0.98001146 -0.16988386 0.19973022
0.1179113 0.028911127 0.28251427 0.31809935 0.27844322 -0.90624619 0.07679493
0.11440151 0.032065336 0.28262618 0.4488602 0.15321144 -0.88036972 0.085181989
0.12556194 0.050528463 0.26920253 -0.3358002 -0.41697234 -0.84461367 0.13597713
0.12091296 0.052030381 0.26878765 -0.23209679 -0.72598541 -0.64736104 0.096427523
0.12455106 0.052195128 0.26809731 -0.11974809 -0.69717968 -0.70682454 0.10475162
0.0044185207 -0.0027583314 0.13927291 0.9166044 0.18176609 -0.3560864 0.00013618032
0.0061754752 0.072678842 0.046236694 0.39345178 -0.81522977 0.42496595 0
0.011476769 0.079554178 0.038657043 0.82533097 -0.50102872 0.26038256 0
0.039468814 0.092184015 -0.0027847767 0.65185255 -0.58306599 0.4848941 1.0051307e-005
0.08382839 0.090534121 -0.042532992 0.4145354 -0.52260298 0.74501443 0.0003491072
0.29067439 0.013861796 0.1477199 -0.90889287 -0.016363699 -0.4167085 0
0.28554925 0.014720618 0.15735969 nan nan nan nan
0.26580361 0.023445129 0.18353465 -0.71987307 -0.14646696 -0.67847645 0.00039937336
0.25925523 0.023028463 0.19057438 -0.69709855 -0.10992201 -0.70849895 0.00041160654
0.21825388 0.011462657 0.22061743 -0.44385853 -0.022866821 -0.895805 8.2755369e-006
0.20381913 7.5442396e-005 0.22651197 nan nan nan nan
0.19381139 -0.002388204 0.22993836 -0.29280621 0.1129955 -0.94947171 0.00029134747
0.15989971 -0.01447111 0.23538981 -0.14969587 0.45889127 -0.87579101 0
0.15121773 -0.0094715375 0.2378256 -0.19100858 0.33092919 -0.9241221 0.0019302976
0.13616529 -0.0030813133 0.2444296 -0.14141753 0.63729668 -0.75753152 0.0032309133
0.11751571 0.010148342 0.2550135 0.43313122 0.70196664 -0.56536728 0.0031650469
0.11368982 0.024508679 0.27202484 0.586317 0.6810599 -0.43862268 0.0092124529
0.11469401 0.027302239 0.27757499 0.56646788 0.58120477 -0.58422178 0.0092825051
0.29734153 0.020486783 0.13092704 -0.93572187 -0.049015056 -0.34931657 0.0003532221
0.29837704 0.059188221 0.07336919 -0.9384734 -0.33477405 0.084817365 0
0.29064259 0.073972717 0.054370385 nan nan nan nan
0.28452331 0.080463283 0.040853936 -0.85516006 -0.4984028 0.14246415 0
0.24941088 0.094848797 -0.0093490453 -0.6358701 -0.57134193 0.51888102 0.00020628113
0.23617147 0.097178407 -0.020779865 nan nan nan nan
0.18479452 0.12876043 -0.083742119 -0.11300985 -0.95828933 0.2625075 0.033279456
0.1992667 0.13219513 -0.087464139 -0.80663067 0.43991876 -0.39473835 0.024475539
0.19642936 0.1288618 -0.087464139 0.53129375 -0.69823575 0.47978505 0.047586001
0.20234767 0.13886179 -0.092464142 -0.98051548 0.018211173 -0.19559547 0.011989438
0.19456141 0.15512256 -0.092480041 -0.55951351 -0.7994712 0.2186102 0.013190495
0.19786181 0.15224123 -0.092250362 -0.72183996 -0.6770767 0.14322767 0.0088353213
0.20256144 0.14219514 -0.095797472 -0.98610926 -0.16534752 -0.015770664 0.012939621
0.20160563 0.14566313 -0.095797472 -0.91228116 -0.4052605 0.059220579 0.011868658
0.18788439 0.15659153 -0.093060195 0.11550604 -0.91076106 0.39645001 0.011536489
0.18504217 0.15018567 -0.10439647 0.32758212 -0.81210864 0.48287627 0.013335238
0.18566588 0.087089561 -0.055220172 -0.2657285 -0.47625861 0.83819211 0.00021212289
0.16705106 0.075717755 -0.064906947 -0.14018174 -0.3726669 0.9173159 0.00027943306
0.01123299 0.0022891359 0.15639079 0.88133109 0.075629458 -0.46640715 2.7697801e-005
0.022585098 0.011361796 0.17499804 0.79551494 0.031653721 -0.60510665 0.00019894987
0.033129275 0.008861796 0.18727402 0.71100938 0.050585434 -0.7013607 1.5638618e-005
0.057033755 0.0071951295 0.20797752 nan nan nan nan
0.066608362 0.0063617961 0.21425746 0.48756105 0.050053522 -0.87165296 0
0.072434664 0.00052846276 0.21718208 0.54228061 0.12405366 -0.83098888 0.00010128981
0.096044578 -0.0071360031 0.22821721 0.4051089 0.19198942 -0.89388299 0
0.10609566 -0.001277527 0.23530129 0.50422847 0.39799687 -0.76638901 0.0048622806
0.11124908 0.023873594 0.26752356 0.71538502 0.60272807 -0.35347322 0.0074205487
0.11062228 0.028925501 0.27411762 0.73424155 0.54694712 -0.40216678 0.0096971532
0.12384696 0.051282145 0.27790546 0.065913424 -0.95318526 -0.29511571 0.15779565
-0.0059634955 0.046267662 0.086702526 0.97653908 -0.21294342 -0.032042056 0.00066487305
-0.0025029699 0.059034575 0.075244188 0.96938485 -0.036366735 -0.24283868 0
0.014215708 0.079295546 0.029477898 0.84416002 -0.44717169 0.29568803 0.0002293662
0.053087119 0.093197852 -0.017702844 0.68503195 -0.53952354 0.48953614 0
0.27961805 0.015111796 0.16694015 -0.78512228 -0.045009173 -0.6177032 0
0.25255644 0.019714208 0.19724672 -0.66258544 -0.091986418 -0.74331629 0.00023590498
0.22607104 0.010528463 0.21656856 -0.44520921 0.12317166 -0.88691461 0
0.18035504 -0.016123192 0.23159221 -0.24007182 0.25554034 -0.9365173 0
0.14598617 -0.0080000786 0.23930241 -0.1990387 0.51041287 -0.83657765 0.0030220347
0.12628984 0.00040107858 0.24766469 0.15900229 0.67919534 -0.71652776 0.00090380991
0.12142786 0.0074305208 0.25393301 0.30648178 0.75998747 -0.57313883 0.0040388876
0.11452805 0.018607568 0.26391464 0.59698981 0.65245342 -0.46680585 0.0036125309
0.29965323 0.018028462 0.12420253 -0.85723448 0.31256333 -0.40921038 0
0.29560637 0.065188386 0.063779451 -0.91764849 -0.39107454 0.070583485 0
0.26815319 0.090621084 0.013883757 nan nan nan nan
0.19839594 0.1288618 -0.090187661 -0.77320361 0.50715744 -0.38071972 0.01705252
0.19157249 0.15538824 -0.095234834 -0.2449031 -0.90158844 0.35659602 0.016945072
0.1987645 0.14843485 -0.100003 -0.72557783 -0.6404224 0.25178578 0.011098155
0.17756008 0.13068815 -0.0938899 -0.98137558 -0.1895631 0.031110439 0.0017724663
0.17736161 0.13052846 -0.090797476 -0.96902931 -0.24524547 -0.028929785 0.0048840819
0.17822081 0.14082891 -0.1078345 -0.85571158 0.37816161 -0.35320169 0.0090813665
0.17740536 0.14052846 -0.10579748 -0.89424831 0.36582386 -0.25786212 0.014280612
0.17444898 0.076183856 -0.06330163 nan nan nan nan
0.10817228 0.08358518 -0.056473073 0.25954497 -0.42706808 0.86616927 0.00024014681
0.11641261 0.08017385 -0.060267258 0.20104386 -0.41470444 0.88746923 0.0002644108
0.13684273 0.066866793 -0.068460204 0.038495857 -0.54574496 0.83706659 0
0.0083848825 -0.0067323479 0.146816 0.8939507 0.2330786 -0.38278788 0.00017428865
0.014472784 0.0040334435 0.16266035 0.84398109 0.10299465 -0.52639151 0.00035081559
0.01947264 0.0040682619 0.17008479 0.80511731 0.094285145 -0.58557361 0.000246943
0.025964798 0.0071951295 0.17899136 0.75672269 0.052767348 -0.65160298 0.00027501496
0.039796319 0.0080284625 0.1939721 0.68712628 0.029304378 -0.72594672 0.00017366002
0.045428135 0.0034451294 0.19868058 0.70500535 0.15559255 -0.6919238 0
0.084503151 -0.0095014283 0.22220729 nan nan nan nan
0.10426593 -0.0062080305 0.23214345 0.39218566 0.33217794 -0.85781592 0.0017673098
0.11059419 0.00066242495 0.23987104 0.50520843 0.51816386 -0.69012368 0.00206367
0.11321358 0.0079128062 0.24887341 0.52732819 0.61828864 -0.58278996 0.0034160039
0.0056904368 -0.0096191466 0.1384224 0.90293825 0.25015602 -0.34946305 0.00016925571
-0.0014741612 0.0016507483 0.12362789 0.95491582 0.14200723 -0.26071015 0.00014983384
-0.0065359632 0.028861796 0.10670252 0.9851523 -0.068915039 -0.15724412 0.00035921327
-0.0053141108 0.049237985 0.080305465 0.98216343 -0.18760847 0.012574742 0
0.0021473062 0.067661427 0.055915527 nan nan nan nan
0.018513747 0.081768461 0.021892443 0.81187302 -0.46677512 0.35068953 0.00031776389
0.026051261 0.084867932 0.010226397 nan nan nan nan
0.085353397 0.085579082 -0.046415202 0.38899419 -0.44890606 0.80446684 0.00034413213
0.29170781 0.0067480896 0.14506257 -0.86288857 0.061361499 -0.50165534 0.00025211021
0.26702353 0.013335361 0.18333673 -0.75850397 -0.00037042078 -0.65166831 0.00015620464
0.25888699 0.013824164 0.1918692 -0.69583768 -0.043470319 -0.71688235 3.3759238e-006
0.21194859 -0.0003048706 0.22325416 -0.39268705 0.063123167 -0.9175033 4.5538036e-005
0.18792276 -0.016190039 0.22963451 -0.24073085 0.24465087 -0.9392522 7.5731499e-005
0.15132189 -0.017153736 0.23545463 -0.097855449 0.29618099 -0.95010585 0
0.16719922 -0.024224969 0.23190588 -0.16397965 0.33519623 -0.92776835 0
0.13121773 -0.0032676144 0.24462391 0.045475356 0.67904419 -0.73268753 0.0018988248
0.11502243 0.012356293 0.25566557 0.50871158 0.66390502 -0.54812646 0.0041462937
0.29714921 0.011402116 0.13184839 -0.88163859 -0.029547989 -0.47099936 8.2353166e-005
0.30183256 0.022583105 0.1146429 nan nan nan nan
0.28816721 0.075205654 0.044344667 nan nan nan nan
0.26105958 0.090584971 0.0017740049 -0.7053048 -0.53410167 0.46613359 0.00022895051
0.25637293 0.089580663 -0.0060864729 -0.67983711 -0.52526182 0.51178271 0.00028971306
0.2416131 0.092980921 -0.01952821 -0.55915654 -0.53682566 0.63179278 3.6261576e-005
0.21158916 0.087697715 -0.044882908 -0.21579237 -0.45334303 0.86482006 0
0.20170116 0.13223425 -0.095816977 -0.9409517 0.25413436 -0.22366403 0.0071221036
0.20313346 0.13886179 -0.099130809 -0.99777365 -0.030739389 -0.059185598 0.012070957
0.19602014 0.15219513 -0.097464144 -0.58223259 -0.73948961 0.3378762 0.021649262
0.19443461 0.15276124 -0.099080458 -0.47622716 -0.82405019 0.30683726 0.018731652
0.2012312 0.14342104 -0.10495491 -0.85064697 -0.49279466 0.18317516 0.012858947
0.20231305 0.14219514 -0.10246414 -0.895872 -0.41902912 0.14774331 0.007770339
0.18788439 0.15239781 -0.10204019 0.090691991 -0.89539754 0.43593374 0.017126938
0.17656751 0.13219513 -0.099130809 -0.99050599 -0.1361272 -0.019163597 0.0023759906
0.18065913 0.14337446 -0.10997776 -0.73018771 0.54816902 -0.40784395 0.020039247
0.1628844 0.069260307 -0.067839675 -0.1079593 -0.30294761 0.94687247 0.00026980203
0.091634586 0.081783488 -0.051255073 0.37043536 -0.40254268 0.83710039 8.7777196e-005
0.12069794 0.071949922 -0.06446556 0.17825393 -0.33061346 0.92677951 0.00018691443
0.12941574 0.068290964 -0.067190364 0.14040487 -0.29848236 0.94403112 0.00020239833
0.14621773 0.066361792 -0.069221154 0.060198378 -0.31082734 0.94855809 0
0.01171039 -0.0077654347 0.1533196 nan nan nan nan
0.016208954 -0.0029021061 0.16340862 0.787341 0.13197251 -0.60222709 0
0.037529621 0.0017784628 0.19122383 0.7118659 0.098925874 -0.69531333 0.00022915208
0.062951326 -0.0028596013 0.21097529 nan nan nan nan
0.073257133 -0.0086420551 0.2163558 0.47168082 0.16407038 -0.86637062 0.0004861037
0.10941349 -0.0045932815 0.23546021 0.42886484 0.43345726 -0.79258424 0.0023989433
0.0042709494 -0.012625834 0.13193074 0.9134208 0.2673659 -0.3068842 0.0001346866
0.0015797548 -0.0069874604 0.12821771 0.93677127 0.21499535 -0.27610952 0.00028571064
-0.0046412526 0.011370997 0.11593361 0.9762401 0.069485873 -0.20524861 0.00057928974
-0.0074105198 0.030528463 0.098369189 0.98676771 0.14387512 -0.074762344 0
-0.0014154328 0.060542934 0.063321479 nan nan nan nan
0.058362223 0.088467523 -0.026471147 nan nan nan nan
0.075898319 0.088082872 -0.039508171 0.46806404 -0.494095 0.73265702 0.00029042197
0.28621984 0.0047424235 0.15587176 nan nan nan nan
0.27257338 0.013028462 0.17671815 -0.78637213 -0.020802002 -0.61740273 8.3003571e-005
0.24536011 0.012195129 0.20379423 -0.62775916 0.036268994 -0.7775622 9.7066892e-005
0.19744232 -0.01033527 0.22787414 -0.10785826 0.20447779 -0.97291076 0
0.17625779 -0.022821212 0.23081549 -0.17656563 0.25539303 -0.95057827 0.00023200312
0.13871773 -0.0091985967 0.23967098 -0.084253684 0.55467606 -0.82778966 0.0023243525
0.12028699 -0.00071328523 0.24460357 0.27516961 0.65243733 -0.70612127 0.00015984636
0.11600772 0.0028601224 0.24582319 0.47882885 0.61837524 -0.62316537 0.0041317698
0.29520273 0.0030284626 0.13602585 -0.93933624 0.07415545 -0.3348856 0.00028855784
0.30295211 0.036361795 0.099202521 -0.96025741 -0.27628988 -0.039618298 0
0.30122453 0.050260227 0.07753586 nan nan nan nan
0.22438531 0.090375632 -0.03572695 -0.62625343 -0.40562388 0.66578966 0
0.19995287 0.1288618 -0.094130807 -0.86430275 0.40539068 -0.29772338 0.003159018
0.1975002 0.14620273 -0.10803556 -0.64579272 -0.68098307 0.34527346 0.0086160256
0.19121772 0.15246144 -0.10209825 -0.19602889 -0.89720541 0.39572099 0.022127895
0.17675644 0.13552846 -0.10579748 -0.99052352 0.060477089 -0.12331122 0.014898702
0.18810292 0.14698072 -0.11178175 0.18336919 -0.84050483 0.50983065 0.012207418
0.099616699 0.08042676 -0.055218749 0.31111592 -0.39422384 0.86475104 0.00031632764
0.10733199 0.075982518 -0.059548646 0.26233554 -0.36672139 0.89257795 0.00015516617
0.022823868 -0.0044715372 0.1727878 0.82880819 0.15515776 -0.53759009 0
0.028246015 -0.00081029336 0.18054117 0.86756808 0.15526596 -0.47245958 0
0.055637971 -0.0028569051 0.20599799 0.57621014 0.14560607 -0.80422688 0.00013947449
0.10362101 -0.019030046 0.2275912 nan nan nan nan
-0.0067261043 0.020528464 0.10691085 0.99573863 -0.02493125 -0.088787094 0
-0.0073050167 0.038028464 0.089202523 0.98885465 -0.14280985 -0.042093482 0.00029958921
-0.0038978886 0.053861797 0.070452526 0.9674921 -0.24714471 0.053652979 0.00032626264
0.065135278 0.086284816 -0.033436075 0.66153967 -0.22719736 0.71466541 0
0.28057361 0.0036534627 0.1652067 -0.82257801 0.038567577 -0.56734288 0
0.25294435 0.010528463 0.1975911 -0.65937877 -0.033476096 -0.75106525 0.00028219039
0.2326788 0.0063617961 0.21266969 -0.53093678 0.018689094 -0.84720528 0.0003461444
0.22034113 0.0022678971 0.21959326 -0.43043682 0.041115634 -0.90168381 0.00056618347
0.16453661 -0.030777404 0.23001164 0.21873108 0.18697408 -0.95770419 0
0.14121772 -0.012616859 0.23773189 -0.053376414 0.46676186 -0.88277078 0.0014574314
0.28982517 -0.002388204 0.14719269 -0.78604835 0.016863097 -0.617935 0
0.30021352 0.0076233135 0.1213888 nan nan nan nan
0.30314037 0.040945128 0.087535858 -0.97704518 -0.18344812 -0.10830279 7.4038704e-005
0.29353341 0.066034138 0.050821513 -0.92155683 -0.18340807 -0.34219074 0
0.28222463 0.078923851 0.030488955 -0.83886945 -0.46092039 0.2895695 0.00020175939
0.27987617 0.077701114 0.022327121 -0.82398659 -0.46536312 0.3232387 0.00026016781
0.2745972 0.083854668 0.01797824 -0.81890142 -0.4622691 0.34015834 0.00011339002
0.23345105 0.088154905 -0.030747626 -0.53693861 -0.49864215 0.68048 0.00053411187
0.22322352 0.086429454 -0.039239526 -0.48796767 -0.46085563 0.74128252 0.00023921665
0.19405779 0.079271987 -0.05673106 -0.29304969 -0.4017714 0.86758375 0.00018763666
0.20163001 0.12901247 -0.099213667 -0.91703808 0.26802054 -0.2953068 0.006432429
0.20357631 0.13552846 -0.10246414 -0.99446857 -0.05387507 -0.090164751 0.011967802
0.20316899 0.13886179 -0.10413081 -0.97034615 -0.23057705 0.072543532 0.0052023237
0.17708965 0.1288618 -0.10079747 -0.96846217 -0.24904606 0.0075584464 0.0075219278
0.18404479 0.14570844 -0.11108755 0.51401317 -0.71102279 0.47983027 0.018949663
0.1945536 0.14924924 -0.10663228 -0.34804806 -0.81188262 0.46873143 0.024761684
0.19121772 0.1490346 -0.10867734 -0.048397459 -0.85935682 0.50908101 0.011565151
0.1865211 0.079435155 -0.059005763 -0.25760993 -0.44883013 0.85568035 5.8684709e-005
0.15621772 0.067195132 -0.069046333 -0.04717584 -0.30131152 0.95235801 0.00048853911
0.11283349 0.070402637 -0.063197993 0.24088734 -0.32047325 0.91611683 0.00017231487
0.15142606 0.057244968 -0.071582682 -0.010742029 -0.22525562 0.97424042 7.0842063e-005
0.14288439 0.056984533 -0.071564347 -0.0079570552 0.31643006 0.94858253 0
0.049221072 -0.0027927768 0.20114172 0.63094848 0.12160759 -0.7662347 0.00026751382
0.083139636 -0.017922541 0.21942179 0.42697397 0.24648145 -0.87002307 0.00021248487
0.090396702 -0.020682307 0.22191727 0.39142203 0.29013145 -0.87327689 0.00019665014
0.11029249 -0.010792257 0.23286593 0.33252037 0.41208404 -0.84830236 0.0010068123
0.11287232 -0.0078143282 0.23523672 0.3792792 0.47513685 -0.79397243 0.0026909201
0.010219995 -0.016058218 0.14485896 0.87347156 0.29339793 -0.38854223 0.00037168871
0.0010262426 0.062726706 0.051489305 -0.0012222291 -0.66759413 0.74452448 0
0.0063453224 0.069049962 0.039117966 0.8976326 -0.36716571 0.24381353 0.00021353464
0.0091770645 0.070542052 0.031951569 0.88798428 -0.34931725 0.29910094 7.0778326e-005
0.033190716 0.084069267 -0.0022558281 nan nan nan nan
0.042723279 0.087406106 -0.011629027 0.53073031 -0.52079225 0.66865599 0
0.049480997 0.08725936 -0.01920031 0.51174349 -0.48898214 0.70641005 2.1428154e-006
0.07072068 0.081680588 -0.040068492 0.4942416 -0.42965311 0.75572705 0.00024442337
0.082687475 0.078965336 -0.048499521 0.38269582 -0.3986074 0.83346027 7.3871641e-005
0.27648401 0.0080284625 0.17144738 -0.81559318 0.015634289 -0.57841444 0
0.26962909 0.0051117959 0.18024364 -0.7704612 0.030257324 -0.6367684 0.00026277071
0.2630896 0.0096951295 0.18775208 -0.72417986 -0.051491588 -0.68768609 8.5037733e-005
0.24061261 0.0067985575 0.20737462 -0.58144385 0.020586984 -0.813326 0.00031536716
0.22976084 -0.0013465373 0.21403213 -0.61162609 0.093459859 -0.78560734 4.2174845e-005
0.22012697 -0.0057215374 0.21891026 0.12270825 0.084462397 -0.98884213 0
0.19812675 -0.018902248 0.2259894 -0.31768695 0.22911678 -0.92009807 0.00034021598
0.17571667 -0.029291332 0.22892207 -0.18090619 0.33687454 -0.92400682 0.00034644402
0.1328844 -0.0091464333 0.23972119 0.054990143 0.57424557 -0.81683421 0.0026750674
0.12476592 -0.0062189535 0.24089757 0.19352517 0.62513614 -0.75614333 0.0035427525
0.29437527 -0.0030581446 0.13631296 -0.92597866 0.14923328 -0.34683263 0
0.30173701 0.013861796 0.11665902 -0.96989751 -0.0057484377 -0.24344571 0.00026883918
0.30372104 0.023861796 0.10461919 nan nan nan nan
0.30428913 0.03292514 0.090779193 -0.98538464 -0.14824641 -0.083905302 0.00025072051
0.28560925 0.072761424 0.031345334 -0.87002939 -0.45149991 0.1979817 0
0.27124965 0.081402488 0.0083564203 -0.79277778 -0.43492955 0.42701259 0.00021216691
0.20264374 0.080727324 -0.052881774 -0.33464071 -0.42663541 0.84023678 0.00031164277
0.1978844 0.12346099 -0.098280318 0.55712825 -0.68821585 0.46472266 0.029225053
0.20345843 0.13219513 -0.10246414 -0.9829551 0.078450173 -0.16626768 0.011536287
0.20254728 0.13886179 -0.10913081 -0.91465753 -0.38060096 0.1361787 0.016258009
0.17743649 0.1288618 -0.10579748 -0.97572601 -0.21896885 -0.0033840497 0.0096584819
0.17758574 0.13380036 -0.11292613 -0.97203535 0.14295204 -0.18631183 0.01181689
0.18147677 0.14012384 -0.11552195 0.69697297 -0.54518032 0.46584019 0.009285707
0.17029999 0.067601182 -0.067404158 -0.13917905 -0.31715742 0.93810469 0.00030239479
0.097374029 0.071955666 -0.057856396 0.33586749 -0.33868381 0.87891203 0.00014360104
0.017129933 -0.013360703 0.16036703 0.83784878 0.26122671 -0.47934344 0.00030868725
0.019510727 -0.0087217391 0.1664518 0.81785923 0.21920924 -0.53202784 0.00028810467
0.035900991 -0.0069819433 0.18786824 0.70405984 0.13603459 -0.6969896 0
0.042343322 -0.0053048707 0.19470513 0.67576814 0.14534172 -0.72264314 0.00028087577
0.06798552 -0.012898938 0.21235992 0.50880587 0.21710268 -0.83305651 0.00030178807
0.075096279 -0.018322436 0.21507716 0.4678517 0.20588797 -0.85949105 4.5675908e-005
0.11642289 -0.0048852493 0.23896779 0.35265401 0.56897891 -0.74289846 0.0027415098
0.0080562197 -0.018672282 0.13734989 0.89487708 0.30508167 -0.32576111 0.00018426449
-0.0030950909 0.0013458203 0.11670982 nan nan nan nan
-0.0053839372 0.006830168 0.10854782 0.98951322 0.055218287 -0.13347124 0
-0.0073853494 0.01719513 0.10045253 nan nan nan nan
-0.0080417069 0.030528463 0.090035856 0.99657154 -0.071920402 -0.040897891 0.0002558539
-0.0071679703 0.039486796 0.079619192 0.98421848 -0.17692062 -0.0036252893 8.6672619e-005
-0.0059788683 0.044935532 0.070869192 0.97734803 -0.19592941 0.08001633 0.00043832875
-0.0026998764 0.053797316 0.057710871 0.96458286 -0.25103402 0.081004612 0
0.28364718 -0.0037166905 0.15885578 nan nan nan nan
0.24763054 0.0026117961 0.20192093 -0.58168185 0.079348892 -0.80953687 0
0.21062969 -0.0094360113 0.22299424 -0.19298762 0.057105444 -0.97953802 0
0.1453844 -0.025562119 0.23284665 -0.021197153 0.48221472 -0.87579662 9.3347764e-005
0.15288439 -0.025682237 0.23260294 -0.026038736 0.31282315 -0.94945437 0
0.30455536 0.026074165 0.097205915 -0.99087095 -0.092041574 -0.098504506 0.00016473724
0.30031365 0.052289184 0.067557998 -0.9590674 -0.27559149 0.065107696 0.00029239772
0.2650772 0.0840239 0.00078259013 -0.73558426 -0.47627756 0.48174214 0.00046183623
0.25498229 0.084750697 -0.012324018 -0.67289674 -0.48720196 0.55663663 0.00023724744
0.24920852 0.085254781 -0.018404555 -0.68043768 -0.40220073 0.61256772 1.3511672e-005
0.23983042 0.087175943 -0.026040215 -0.58772564 -0.48464528 0.64784056 0.00032234681
0.21273606 0.078869998 -0.049221504 -0.38968778 -0.42698202 0.81598389 0.00016887776
0.20090437 0.12481245 -0.10238329 -0.74158388 0.53513467 -0.40457907 0.011685633
0.20357762 0.13552846 -0.10913081 -0.97649646 -0.21133611 0.042328481 0.0062963604
0.20080058 0.14152639 -0.11079747 -0.77402151 -0.56444478 0.2868669 0.0085484711
0.1778844 0.12768482 -0.10246414 -0.95623595 -0.2922996 0.013181739 0.0062040808
0.17707299 0.13219513 -0.11079747 -0.9989087 0.0046497821 -0.046473779 0.010754107
0.17978887 0.13469513 -0.11829747 -0.89840001 0.28238097 -0.33636066 0.013525778
0.18486775 0.14305392 -0.11569797 0.27285975 -0.79050791 0.54831088 0.019764021
0.18337652 0.07056763 -0.063451938 -0.24828179 -0.28882173 0.92462856 0
0.16031128 0.060700819 -0.070531033 -0.073505342 -0.237682 0.96855783 0.00025617512
0.1200247 0.063387379 -0.067119129 0.051219102 -0.29912695 0.95283771 0
0.12962191 0.05963162 -0.069746844 0.12512916 -0.25257146 0.95945311 0.00025403919
0.015271641 -0.018393567 0.15378194 0.77792376 0.37379 -0.5050897 5.622031e-006
0.029306609 -0.009477824 0.17964835 0.76913351 0.20201886 -0.60631841 0.00047766994
0.043424822 -0.012333979 0.19387794 0.66574496 0.22574863 -0.71121114 0.00030322172
0.04980607 -0.0094301365 0.20028308 0.63040006 0.19557939 -0.75122869 0.0003331741
0.05831974 -0.012049543 0.20607755 0.57739764 0.19302353 -0.79331821 0.00021716706
0.0066817086 -0.022053236 0.12950805 0.89187413 0.35536709 -0.27977616 0.00013078831
0.00027592876 -0.0099332333 0.12046242 0.90662205 0.3206656 -0.27424449 0
-0.0081419898 0.020528464 0.090869188 nan nan nan nan
0.012561478 0.07237339 0.02452749 0.86515027 -0.39079863 0.31431094 0.00036043714
0.019354172 0.076785371 0.014199693 0.85202557 -0.39198256 0.34698999 5.1402603e-006
0.026092395 0.078829095 0.0038875043 0.78291214 -0.41830379 0.46051106 0.00037281594
0.089160986 0.073640339 -0.053888373 0.36429965 -0.37432721 0.85273957 0.0001821991
0.28674337 -0.0095337639 0.15093462 -0.90756917 0.19838884 -0.37008107 3.0262502e-006
0.27638289 0.00052051904 0.17108507 -0.80923021 0.073907211 -0.58282423 0
0.2709446 -0.002388204 0.17781097 -0.78869116 0.060136337 -0.61184144 0
0.25644866 0.0046951296 0.19441953 -0.69180024 0.023870781 -0.72169423 0.00041856166
0.23935458 -0.0031504191 0.20762365 -0.58315873 0.13235389 -0.80150378 0
0.21941599 -0.012852877 0.2181859 -0.058441579 0.10739615 -0.99249721 0
0.20696072 -0.016139697 0.22331241 -0.37101167 0.20865288 -0.90488362 0.00031072315
0.19136213 -0.024345849 0.22662941 -0.27723318 0.26811656 -0.92263496 0.00037079197
0.12705106 -0.009817373 0.23861144 0.18607138 0.56916463 -0.80089271 0.002049319
0.29132354 -0.010144563 0.14069848 -0.92602122 0.20165674 -0.31909138 0
0.29338759 -0.014132052 0.13218009 -0.85133994 0.36434504 -0.37745592 6.2775092e-005
0.29752415 -0.0003048706 0.12847331 -0.93973601 0.13407944 -0.31451389 0.00035506641
0.30316076 0.04219513 0.076494195 -0.97863328 -0.20559804 -0.0025142559 0.00016348762
0.29798985 0.056806203 0.057175931 nan nan nan nan
0.28941411 0.067522496 0.036089823 -0.87610424 -0.28657073 0.38770935 0.00019927802
0.26158798 0.082779251 -0.0056360546 -0.7123825 -0.46831438 0.52267849 0.00022266597
0.2208019 0.080887541 -0.044020332 -0.45584542 -0.41554105 0.7871027 0.00038946449
0.19946814 0.073819287 -0.057395205 -0.32484552 -0.36978689 0.87047863 0.00021511607
0.20364982 0.1288618 -0.10579748 -0.97026259 0.12530777 -0.20709553 0.0068025757
0.20418985 0.13219513 -0.10913081 -0.99851954 -0.054282896 -0.0034783699 0.011535707
0.20170684 0.13719745 -0.11580142 -0.84366012 -0.48220575 0.23604079 0.017924991
0.1980028 0.1410965 -0.11675064 -0.60497183 -0.68461967 0.40657717 0.011342797
0.19483227 0.14380516 -0.11569277 -0.30308926 -0.75224674 0.58503139 0.022626664
0.17728312 0.12719513 -0.11246414 -0.99820507 -0.049231969 -0.034102939 0.012726727
0.17884734 0.1301118 -0.12121414 -0.88798285 0.36015299 -0.28596529 0.013327009
0.19144456 0.14404151 -0.11646 -0.014791863 -0.80488729 0.5932433 0.013699199
0.16955106 0.06219513 -0.069077887 -0.11078774 -0.27113661 0.95614386 1.2163304e-005
0.13555211 0.055826079 -0.071243376 0.09562353 -0.18780263 0.97754097 0.00011859552
0.012963451 -0.025249673 0.14313631 0.85790724 0.3557393 -0.37073538 0.00022818889
0.020523898 -0.018829681 0.16293339 0.84384906 0.32269552 -0.42870316 0
0.026572905 -0.015883634 0.17350578 0.75651687 0.25479269 -0.60229796 4.5852677e-005
0.063142926 -0.017535012 0.20786652 0.53874779 0.25803316 -0.80197865 0.00017774705
0.093498193 -0.027700691 0.22082898 nan nan nan nan
0.11611881 -0.014471537 0.23316614 0.28325275 0.35817498 -0.88965082 0.00050499401
0.11939495 -0.011040646 0.23577093 0.2567099 0.52090997 -0.81409627 0.0016233937
0.010347367 -0.025969289 0.13591354 0.87187004 0.37318829 -0.31713265 0.0002284653
0.004257685 -0.020626985 0.12305407 0.8704685 -0.2970213 -0.39250872 0
-0.0022200334 -0.0076676402 0.11080699 nan nan nan nan
-0.0049714772 0.047009766 0.063726589 0.97427911 -0.20352712 0.096730538 0.00028352681
0.03731104 0.078954026 -0.01193955 0.69451946 -0.36276445 0.62132502 0
0.042815566 0.079946101 -0.017513141 0.65394551 -0.44945154 0.60856259 0.00016226193
0.049371045 0.079888418 -0.024223614 0.6408605 -0.43883976 0.62985516 0
0.056742128 0.07899759 -0.031341325 nan nan nan nan
0.073605947 0.075673275 -0.044981029 0.08904022 -0.60516626 0.79110408 0
0.27620479 -0.0063133566 0.17000464 -0.82488656 0.14886171 -0.54534614 0.00023771611
0.26277277 -0.0020514557 0.18741409 -0.73756492 0.13037652 -0.66257066 0
0.25431228 -0.0029956109 0.19565669 -0.67403686 0.098574117 -0.73209119 9.1076472e-005
0.22943047 -0.0094624422 0.21331632 -0.1722991 0.090459339 -0.98088235 0.00013529896
0.18444151 -0.029439935 0.2269102 -0.2382514 0.33279181 -0.91240662 0.00022411463
0.17327911 -0.038060054 0.22587891 -0.15965511 0.3981958 -0.90329969 0.00053410925
0.13936481 -0.027588228 0.23188141 0.046547052 0.31474745 -0.94803345 0.00011751713
0.1328844 -0.0156509 0.23616143 0.058317374 0.41251415 -0.90908259 0.0021132007
0.16082248 -0.036939751 0.22796713 -0.071372896 0.40162945 -0.9130168 0.00028729171
0.30409533 0.013048884 0.10329405 nan nan nan nan
0.29571038 0.059253216 0.048613064 -0.92692018 -0.32402179 0.18928511 0.00030147331
0.27703813 0.077258483 0.014891717 -0.81165469 -0.43743429 0.38712773 0.00035054309
0.22887172 0.080136277 -0.039240379 -0.49912059 -0.40630239 0.76537371 0.00024936718
0.20743261 0.073348895 -0.054318096 -0.38020405 -0.36637697 0.84924245 0.0002644037
0.19293267 0.070611291 -0.060872611 -0.27532893 -0.3432135 0.89799696 0.00032200819
0.20225078 0.1238618 -0.10579748 -0.82820749 0.41812578 -0.37315309 0.023381198
0.20310746 0.13552846 -0.11413081 -0.89856446 -0.38817146 0.20470662 0.0092001967
0.17856881 0.12552847 -0.10413081 -0.91441208 -0.37735087 0.14648159 0.027449932
0.17796957 0.12580951 -0.11143621 -0.97743607 -0.18259396 0.10619903 0.012307092
0.17732757 0.12719513 -0.11663081 -0.9916833 0.086111583 -0.095650479 0.021965448
0.18788439 0.1411451 -0.11988705 0.20816238 -0.7709164 0.60196036 0.0074529559
0.032664869 -0.015964651 0.18112217 0.73636937 0.27168366 -0.6196354 0.00013932592
0.038962573 -0.017117821 0.18766767 0.69123358 0.28735417 -0.66304129 0.00030965984
0.05326698 -0.016082846 0.2010951 0.59331757 0.26111549 -0.76144141 0.0002809171
0.083457462 -0.025251415 0.21725573 0.40164942 0.30832246 -0.86233115 0.00022243235
0.11625524 -0.021791445 0.23059641 0.21202295 0.32762116 -0.92071193 0.00028089495
-0.0083498787 0.027611796 0.08086919 0.9990477 -0.040700886 0.015716948 0.00028304604
0.00015453328 0.055889867 0.045357011 0.93719417 -0.27759284 0.21120915 0.00013456831
0.003199805 0.060529429 0.03878526 0.9175778 -0.31117383 0.24743074 0.00026877024
0.016361266 0.070013888 0.013898629 0.83350658 -0.36703989 0.41297525 0.0001011272
0.029894901 0.077363588 -0.0033651348 0.74702454 -0.41021374 0.52314341 0.0003275499
0.28634536 -0.016263917 0.14828801 -0.87831408 0.25967595 -0.40141359 0.00044631009
0.2460461 -0.006998803 0.20211792 -0.61250347 0.12555279 -0.78043318 0.00020532298
0.21638399 -0.022093855 0.21735965 -0.43074495 0.25825235 -0.86473376 0.00035738412
0.2080389 -0.023206612 0.22091196 -0.37715951 0.27712029 -0.88371658 0.00023822213
0.19981377 -0.02675005 0.22297153 -0.32880989 0.31181571 -0.89143419 0.00011896385
0.13162331 -0.024296382 0.23259184 0.1150752 0.38509727 -0.91567343 0.00023438789
0.12700304 -0.014204855 0.23588343 0.14575441 0.45482373 -0.8785733 0.0045990394
0.29817027 -0.004447551 0.1239651 -0.58926487 -0.6378898 0.49584633 0
0.30454114 0.034393396 0.080035858 -0.99065667 -0.13631715 0.0041136891 0.00014023596
0.30269268 0.043445129 0.069202527 -0.96626532 -0.25695184 0.017526574 0
0.24607992 0.08070676 -0.02486808 -0.61780268 -0.4446218 0.648561 0.00017583754
0.23780797 0.080376215 -0.032416049 -0.57077408 -0.46481058 0.67688119 2.2530534e-005
0.1978844 0.11922721 -0.10448055 0.52456087 -0.63698798 0.56487375 0.031587899
0.20342302 0.12552847 -0.10746414 -0.91180974 0.2964817 -0.28408027 0.012994659
0.20456268 0.12906469 -0.1127929 -0.9965238 -0.066450447 -0.050245516 0.014189224
0.2039163 0.13219513 -0.11579747 -0.96546948 -0.23574412 0.11087567 0.0060123187
0.20077649 0.13584772 -0.11989205 -0.71378577 -0.55743206 0.42400399 0.0091257272
0.17898323 0.12219513 -0.10579748 -0.88307488 -0.40264654 0.24094526 0.033438805
0.18129924 0.13380544 -0.12240351 -0.76142246 0.47846311 -0.43738866 0.018862255
0.18441898 0.13392642 -0.12586416 0.55282789 -0.64258152 0.53053784 0.009863019
0.18101341 0.063035816 -0.06643828 0.38241535 -0.44015056 0.81241977 0
0.16497995 0.053658016 -0.071607612 -0.12743512 -0.19635393 0.97221673 0.00020032337
0.15788439 0.051361796 -0.072735034 -0.053717084 -0.16878527 0.98418802 0.00050971407
0.10924745 0.061977983 -0.06495782 0.26033065 -0.26123857 0.92950654 0.00040362251
0.09733396 0.064695127 -0.060392577 0.17427249 -0.3257637 0.92925084 0
0.12246773 0.057195131 -0.069192603 0.17460094 -0.21266724 0.9613986 0.00025704838
0.14767607 0.046778463 -0.073447593 nan nan nan nan
0.016048584 -0.025989218 0.1493562 0.8395471 0.35965669 -0.40719491 0.00030216013
